# .PCD v0.7 - Point Cloud Data file format
VERSION 0.7
FIELDS x y z intensity
SIZE 4 4 4 4
TYPE F F F F
COUNT 1 1 1 1
WIDTH 1131
HEIGHT 1
VIEWPOINT 0 0 0 1 0 0 0
POINTS 1131
DATA ascii
18.150595 -3.5449083 -4.8408628 14.611371
18.163092 -3.6066141 -4.8471947 14.851303
18.161156 -3.6655684 -4.8497272 14.662483
18.172592 -3.7306268 -4.8560591 14.903259
18.165518 -3.7886853 -4.857326 14.706443
18.153526 -3.8457351 -4.857326 14.507706
18.146084 -3.9037623 -4.858592 14.514945
18.138456 -3.9617815 -4.8598585 14.328562
18.135365 -4.0208354 -4.862391 14.536686
18.141521 -4.0820298 -4.8674569 14.565729
18.147472 -4.1433029 -4.8725224 14.794764
18.139078 -4.2013841 -4.8737884 14.60212
18.135208 -4.2605577 -4.8763213 14.421812
18.121735 -4.3175101 -4.8763213 14.421812
18.098677 -4.3721514 -4.8737884 14.60212
18.08955 -4.4301376 -4.8750553 14.80954
18.099018 -4.4927635 -4.8813868 14.846539
18.108271 -4.5554929 -4.8877187 14.682504
18.121996 -4.6195178 -4.8953171 14.726542
18.121445 -4.6800494 -4.899116 14.74861
18.111332 -4.7381797 -4.900383 14.559232
18.101032 -4.7962914 -4.901649 14.374837
18.094372 -4.8587961 -4.904182 14.389194
18.121031 -4.9270239 -4.9155793 14.266274
18.124119 -4.9890566 -4.9206452 14.482882
18.131655 -5.0524535 -4.9269767 14.519076
18.143627 -5.1172581 -4.9345751 14.373509
18.146069 -5.1795368 -4.9396405 14.591747
18.166887 -5.2472439 -4.9497719 14.650146
18.14567 -5.3029342 -4.9485054 14.452664
18.125216 -5.3553824 -4.9472389 14.445453
18.102722 -5.4140739 -4.9459724 14.438241
18.080994 -5.4695191 -4.944706 14.246021
18.063723 -5.5262957 -4.944706 14.620916
18.046272 -5.5830169 -4.944706 14.431035
18.028643 -5.6396837 -4.944706 14.815863
18.006226 -5.6948376 -4.94344 14.808468
17.979029 -5.7484345 -4.940907 14.793691
17.956278 -5.8034029 -4.9396405 14.786304
17.937958 -5.859786 -4.9396405 14.986118
17.91946 -5.91611 -4.9396405 14.986118
17.900785 -5.9723763 -4.9396405 14.986118
17.886518 -6.0301275 -4.940907 14.793691
17.858328 -6.0831738 -4.9383745 14.778923
17.848278 -6.1423922 -4.940907 14.793691
17.824322 -6.196847 -4.9396405 14.786304
17.800203 -6.2512121 -4.9383745 14.778923
17.785034 -6.3087177 -4.9396405 14.786304
17.782232 -6.3741822 -4.944706 14.620916
17.757572 -6.42837 -4.94344 14.61362
17.756594 -6.4876628 -4.9485054 14.838069
17.722509 -6.5383968 -4.944706 14.431035
17.720015 -6.6007895 -4.9497719 14.650146
17.707085 -6.6629181 -4.9523048 14.474331
17.690586 -6.7202296 -4.9535708 14.481556
17.655836 -6.7705822 -4.9497719 14.459886
17.63448 -6.8260159 -4.9497719 14.459886
17.617453 -6.883141 -4.9510379 14.467105
17.58674 -6.9349084 -4.9485054 14.64283
17.569363 -6.9919119 -4.9497719 14.650146
17.583223 -7.0614805 -4.9599028 14.708776
17.551985 -7.1130543 -4.9573698 14.694095
17.538507 -7.1718192 -4.9599028 14.708776
17.529308 -7.2324123 -4.9637022 14.927237
17.546696 -7.304162 -4.9750996 14.79716
17.550423 -7.3704786 -4.9826975 14.841549
17.525887 -7.4286366 -4.9826975 14.648803
17.498014 -7.4817595 -4.9814315 15.031932
17.46998 -7.5347795 -4.9801645 14.2637
17.441788 -7.5876985 -4.9788985 14.25658
17.431152 -7.6482811 -4.9826975 14.648803
17.399534 -7.6960564 -4.9801645 15.02443
17.353182 -7.7408361 -4.9738331 15.397574
17.297894 -7.781436 -4.9649682 15.556967
17.241158 -7.8247724 -4.9561038 15.721042
17.190096 -7.8668308 -4.9485054 15.456322
17.152119 -7.914721 -4.944706 15.43319
17.109625 -7.960412 -4.9396405 14.986118
17.12833 -8.0346508 -4.9523048 14.664782
17.177351 -8.1235476 -4.9738331 14.789775
17.170641 -8.1827965 -4.9788985 14.819339
17.226257 -8.2794733 -5.0029597 14.960564
17.226286 -8.3461952 -5.0105581 15.205508
17.191286 -8.3960295 -5.0080252 14.990461
17.134441 -8.4350519 -4.9991608 14.744177
17.081854 -8.4759493 -4.9915624 15.092083
17.024855 -8.5144367 -4.9826975 14.648803
17.019621 -8.5787582 -4.9890294 14.878639
17.083166 -8.6781578 -5.015624 15.235894
17.05151 -8.7295799 -5.0143571 15.027917
17.028301 -8.7853222 -5.015624 15.03542
17.009203 -8.843235 -5.0181565 15.050438
16.989906 -8.9011126 -5.020689 15.065464
16.978973 -8.9634695 -5.0257545 15.095571
16.980627 -9.0326576 -5.0346193 15.148391
16.952168 -9.0859594 -5.0346193 15.35037
16.838402 -9.0932331 -5.0092916 15.403296
16.788504 -9.1345377 -5.0029597 15.160039
16.763968 -9.189559 -5.0042262 14.39963
16.735014 -9.2421789 -5.0042262 14.584239
16.826862 -9.365799 -5.0409513 14.989006
16.811663 -9.4227743 -5.0447507 15.01146
16.794615 -9.4826736 -5.0485497 15.231759
16.754667 -9.5335321 -5.0460167 15.419456
16.726305 -9.5832033 -5.0460167 15.216568
16.707005 -9.6458683 -5.0498161 15.442552
16.676619 -9.698308 -5.0498161 15.23936
16.675291 -9.7677536 -5.058681 15.292666
16.677856 -9.8397436 -5.0688119 15.353809
16.588634 -9.8575172 -5.0510826 15.04895
16.727787 -10.011367 -5.103004 15.561885
16.708683 -10.071355 -5.1068029 15.585166
16.672825 -10.12129 -5.1055369 15.785103
16.649202 -10.178662 -5.1080699 15.592938
16.633623 -10.241055 -5.1131353 15.42114
16.609591 -10.298354 -5.1156678 15.639624
16.589466 -10.358167 -5.1194673 15.459603
16.565035 -10.415378 -5.1220002 15.475014
16.540407 -10.472538 -5.1245322 15.490437
16.523743 -10.534846 -5.1295981 15.521332
16.496859 -10.594807 -5.1321311 15.536801
16.469416 -10.646333 -5.1333976 15.544541
16.44805 -10.705934 -5.1371965 15.368192
16.412458 -10.760417 -5.1371965 15.368192
16.390686 -10.819915 -5.1409955 15.391167
16.348555 -10.866002 -5.1384625 15.375846
16.326401 -10.925376 -5.142262 15.203914
16.316071 -10.992819 -5.1498604 15.249396
16.29747 -11.054879 -5.1549258 15.279789
16.270651 -11.111478 -5.1574588 15.295006
16.255596 -11.176233 -5.1637907 15.529688
16.220406 -11.227246 -5.1637907 15.529688
16.192993 -11.283678 -5.1663232 15.54515
16.169346 -11.342823 -5.1701221 15.568367
16.141537 -11.399141 -5.1726551 15.583867
16.121418 -11.461 -5.177721 15.817696
16.089268 -11.514404 -5.178987 15.825565
16.060865 -11.570545 -5.18152 15.63822
16.04402 -11.635137 -5.1878514 15.677151
16.011295 -11.688334 -5.1891184 15.888651
15.984142 -11.749955 -5.1929173 15.50952
15.960879 -11.805955 -5.1967168 15.532669
15.939232 -11.867588 -5.2017817 15.369033
15.899791 -11.920379 -5.2017817 15.563579
15.877712 -11.981919 -5.2068477 15.594549
15.859255 -12.046365 -5.2131796 15.633336
15.832863 -12.104939 -5.216979 15.857382
15.806259 -12.163465 -5.220778 15.680003
15.783269 -12.224904 -5.2258434 15.912605
15.760047 -12.286319 -5.2309089 15.545632
15.72683 -12.344483 -5.2334414 15.368965
15.703157 -12.405818 -5.2385073 15.789371
15.667892 -12.4581 -5.2397738 15.797213
15.636232 -12.513301 -5.2423062 15.422455
15.60438 -12.568427 -5.2448392 15.065776
15.576094 -12.626523 -5.2486386 14.733203
15.540098 -12.678451 -5.2499046 14.915996
15.515148 -12.739481 -5.2549701 15.499165
15.486238 -12.7974 -5.2587695 15.915211
15.453397 -12.852173 -5.261302 15.931004
15.424076 -12.909966 -5.265101 15.954719
15.390842 -12.964589 -5.2676339 15.970547
15.36849 -13.028509 -5.2739658 15.81005
15.338528 -13.086142 -5.2777653 15.833577
15.304682 -13.140564 -5.2802982 15.653607
15.266985 -13.191741 -5.2815642 15.661362
15.247374 -13.258675 -5.2891626 15.707983
15.223849 -13.322432 -5.2954946 15.943763
15.19774 -13.388824 -5.3018265 16.185598
15.173704 -13.452539 -5.3081584 16.225706
15.145809 -13.513018 -5.3132238 16.257853
15.110482 -13.566995 -5.3157568 15.872122
15.092916 -13.637089 -5.3246212 16.126257
15.06432 -13.697449 -5.3296871 16.158184
15.031921 -13.7545 -5.3334861 16.387005
15.009993 -13.821308 -5.3410845 15.834364
14.973597 -13.874968 -5.3436174 15.850021
14.944087 -13.935129 -5.3486824 16.278402
14.918961 -14.004466 -5.3562808 16.326706
14.881927 -14.057906 -5.3588138 16.342836
14.85873 -14.124578 -5.3664122 16.811596
14.828267 -14.184558 -5.3714776 16.631584
14.797576 -14.244486 -5.376543 16.456129
14.766655 -14.30436 -5.3816085 16.086462
14.738966 -14.367557 -5.3879404 16.52932
14.704119 -14.423947 -5.3917394 16.553778
14.669064 -14.480261 -5.3955388 16.173923
14.644095 -14.54672 -5.4031372 16.422068
14.612012 -14.606328 -5.4082026 16.871017
14.593344 -14.679595 -5.418334 17.154736
14.570958 -14.749448 -5.4271984 16.996019
14.548277 -14.819305 -5.4360633 17.273272
14.508408 -14.871859 -5.4385962 17.0714
14.475084 -14.931252 -5.4436612 17.780188
14.431463 -14.980135 -5.4449277 17.332804
14.40106 -15.042864 -5.4512596 17.155489
14.380413 -15.116058 -5.461391 17.443821
14.356121 -15.185758 -5.4702559 17.282282
14.321593 -15.244881 -5.4753208 17.316225
14.284167 -15.306429 -5.4803863 17.572664
14.242589 -15.358321 -5.4829192 17.589905
14.207387 -15.417212 -5.4879851 17.401333
14.181756 -15.486734 -5.4968495 17.461119
14.162343 -15.563399 -5.5082469 17.538233
14.13285 -15.629334 -5.5158448 17.369928
14.096617 -15.688044 -5.5209107 17.40395
14.066598 -15.753895 -5.5285091 17.02935
14.055573 -15.841413 -5.5437055 17.340961
14.034957 -15.924214 -5.5563698 17.643641
13.997613 -15.982777 -5.5614347 17.459852
13.940979 -16.019377 -5.5589023 17.442827
13.896914 -16.07041 -5.5614347 17.246925
13.855821 -16.124992 -5.5652347 17.272182
13.808235 -16.172119 -5.5665007 17.493946
13.782108 -16.238827 -5.5753651 17.773159
13.746896 -16.306623 -5.5829639 17.605127
13.701814 -16.357145 -5.5854964 17.84256
13.665837 -16.418692 -5.5918283 17.665232
13.626524 -16.47645 -5.5968938 17.483801
13.593126 -16.541592 -5.6044922 17.751381
13.559455 -16.606689 -5.6120906 17.37425
13.528558 -16.675493 -5.620955 17.433443
13.482176 -16.725443 -5.6234879 18.104776
13.447714 -16.790359 -5.6310859 18.157591
13.419005 -16.862795 -5.6412172 18.228209
13.377968 -16.920044 -5.6462827 18.263603
13.351649 -16.996212 -5.6576805 18.343439
13.304142 -17.0457 -5.660213 18.361216
13.253473 -17.097364 -5.6627455 18.379007
13.21741 -17.161905 -5.6703439 18.43247
13.192834 -17.241749 -5.6830077 18.756304
13.156173 -17.30621 -5.6906061 18.575645
13.122154 -17.374468 -5.699471 18.874498
13.082027 -17.434946 -5.7058024 18.920111
13.044541 -17.499222 -5.7134013 18.73778
13.006782 -17.563435 -5.7209997 18.560076
12.97448 -17.635372 -5.7311306 18.631765
12.936147 -17.699471 -5.738729 18.685677
12.900379 -17.767416 -5.7475934 18.520084
12.855821 -17.823544 -5.7526593 18.55575
12.80228 -17.873941 -5.7551918 18.802906
12.757287 -17.929832 -5.7602572 18.609348
12.72324 -18.001415 -5.7703886 18.455933
12.686088 -18.069002 -5.779253 18.743877
12.640334 -18.124634 -5.7843189 18.779882
12.603038 -18.185907 -5.7919168 19.066505
12.548149 -18.235567 -5.7944498 19.323349
12.490797 -18.274899 -5.7944498 18.852049
12.465941 -18.362061 -5.8096461 18.960707
12.451483 -18.465288 -5.8299088 18.651434
12.417645 -18.540476 -5.8413057 18.957455
12.37274 -18.599529 -5.8476381 19.002747
12.324327 -18.660633 -5.8539696 19.280411
12.273606 -18.711388 -5.8577685 19.075377
12.23061 -18.774168 -5.8653674 18.902258
12.184712 -18.8328 -5.8716989 19.409452
12.122871 -18.866919 -5.8704329 19.639723
12.089572 -18.945677 -5.8830967 19.257904
12.050715 -19.016245 -5.8932281 18.876436
12.011536 -19.086752 -5.9033585 19.404888
11.956642 -19.132595 -5.9058914 19.192089
11.906682 -19.186501 -5.9109573 19.002337
11.861581 -19.248512 -5.9185553 19.28335
11.823784 -19.322809 -5.9299526 19.137939
11.790665 -19.405321 -5.9438829 19.23785
11.744641 -19.467113 -5.9514813 19.068182
11.698348 -19.528805 -5.9590793 18.687725
11.651781 -19.590399 -5.9666777 18.53018
11.60002 -19.643566 -5.9717436 18.358921
11.569076 -19.740337 -5.9894729 17.884354
11.511869 -19.784945 -5.9920058 18.294643
11.464181 -19.846138 -5.9996037 18.550245
11.423443 -19.919813 -6.0110011 18.424231
11.387143 -20.001835 -6.0249314 18.519699
11.343298 -20.071194 -6.0350628 18.589365
11.296762 -20.136253 -6.0439272 18.650476
11.247577 -20.196995 -6.0515256 18.702982
11.193434 -20.249159 -6.056591 18.53437
11.148391 -20.318144 -6.0667224 18.808313
11.100706 -20.382797 -6.0755868 19.079632
11.048122 -20.438843 -6.0819187 19.124247
10.990719 -20.486237 -6.0857177 19.151052
10.936369 -20.548185 -6.0933161 19.42053
10.896625 -20.629482 -6.1072464 19.520372
10.85648 -20.71073 -6.1211767 19.402584
10.804763 -20.770475 -6.1287746 19.242985
10.754993 -20.8344 -6.1376395 19.305681
10.707141 -20.902521 -6.1477709 19.592815
10.647999 -20.948988 -6.1515698 19.620104
10.621364 -21.060062 -6.1743646 19.566998
10.589801 -21.162527 -6.1946268 19.498009
10.538331 -21.226013 -6.2034917 19.776073
10.489263 -21.304234 -6.2161555 19.867479
10.428654 -21.350119 -6.2199545 19.894958
10.374193 -21.408888 -6.2275529 20.171673
10.325755 -21.480604 -6.2389507 19.815031
10.27072 -21.539129 -6.2465487 19.869745
10.229904 -21.628124 -6.2630115 20.208326
10.178027 -21.68465 -6.2706103 20.263996
10.114229 -21.735821 -6.2756753 19.653254
10.06009 -21.798227 -6.2845402 19.508801
10.003647 -21.85611 -6.2921386 19.562422
9.9389343 -21.896238 -6.2946711 19.580317
9.8840046 -21.958225 -6.3035359 19.041729
9.850481 -22.068663 -6.3263307 19.004807
9.8026485 -22.148149 -6.340261 18.909229
9.7446871 -22.205408 -6.3478594 18.960899
9.6787214 -22.255341 -6.3529248 19.187275
9.6202536 -22.312284 -6.3605232 18.858656
9.5710382 -22.391315 -6.3744535 18.953005
9.5138645 -22.452446 -6.3833184 19.203352
9.4564037 -22.513435 -6.3921828 19.264301
9.4042311 -22.587683 -6.4048467 19.35161
9.3643417 -22.703695 -6.4289083 18.949772
9.3094549 -22.773293 -6.4403057 18.843805
9.2469501 -22.824839 -6.4466376 19.069616
9.1914301 -22.894171 -6.458035 19.146936
9.1284056 -22.945402 -6.4643669 19.378122
9.0651531 -22.996464 -6.4706984 19.810097
9.0157547 -23.083395 -6.4871616 20.332541
8.9624052 -23.161221 -6.501092 20.226498
8.908659 -23.238939 -6.5150223 19.728348
8.8527908 -23.312025 -6.5276861 19.81658
8.7948494 -23.380463 -6.5390835 20.093216
8.7416334 -23.462362 -6.5542798 20.002758
8.6896648 -23.548697 -6.5707431 20.520985
8.6305933 -23.616764 -6.5821404 20.603073
8.5810652 -23.711977 -6.6011357 20.740374
8.5138121 -23.772179 -6.6100011 21.014822
8.4561901 -23.833797 -6.620132 20.878309
8.3851271 -23.884525 -6.6264639 21.135782
8.3275299 -23.961004 -6.6403942 21.026125
8.2632351 -24.019062 -6.6492586 21.304058
8.198658 -24.076952 -6.6581235 21.587805
8.1280451 -24.131508 -6.6657219 21.426155
8.0701914 -24.196812 -6.6771193 21.730459
7.9990082 -24.250998 -6.6847172 22.012316
7.9257846 -24.285204 -6.6872501 22.261105
7.8464785 -24.300777 -6.6847172 22.24161
7.7728662 -24.319345 -6.6834512 22.231863
7.7096796 -24.40033 -6.6986475 22.349007
7.6517601 -24.484442 -6.7151108 22.476385
7.5790892 -24.522223 -6.7189097 22.505846
7.5006003 -24.541286 -6.7176433 22.496021
7.4276648 -24.578619 -6.7214427 22.065798
7.362884 -24.643539 -6.7328401 21.709539
7.2936578 -24.694382 -6.7404385 21.550858
7.2255378 -24.749672 -6.7493029 21.832792
7.1487932 -24.792086 -6.7543688 21.65427
7.0828114 -24.856285 -6.7657661 21.956518
7.0033774 -24.873756 -6.7644997 21.946985
6.9355788 -24.932915 -6.774631 21.805279
6.8738914 -25.015209 -6.7910933 21.295935
6.8066826 -25.07869 -6.8024912 21.586605
6.7378917 -25.137323 -6.8126221 21.048319
6.6743045 -25.234343 -6.8328843 21.81143
6.6096773 -25.311342 -6.8480806 22.13937
6.538589 -25.364767 -6.8569455 21.571651
6.4704652 -25.41218 -6.8645439 21.223078
6.3932371 -25.461643 -6.8721423 21.891588
6.3190365 -25.505075 -6.8784742 21.938585
6.2423296 -25.538897 -6.8822732 22.18008
6.1734142 -25.605402 -6.8949375 21.850981
6.1131063 -25.709366 -6.9177318 22.447275
6.0400443 -25.761408 -6.9265971 22.735142
5.9678059 -25.817955 -6.936728 22.591293
5.8952746 -25.874304 -6.9468594 23.584238
5.8224454 -25.930449 -6.9569898 23.664581
5.7503705 -25.991116 -6.9683876 23.755182
5.6759062 -26.042133 -6.977252 22.900539
5.5956116 -26.089188 -6.9848504 22.738066
5.5256295 -26.163425 -7.0000472 23.075703
5.4522791 -26.223274 -7.0114446 22.940878
5.3795776 -26.287659 -7.0241079 22.391945
5.2998362 -26.318655 -7.0279078 22.008898
5.2218351 -26.358896 -7.0342393 22.67951
5.148262 -26.422646 -7.0469031 22.353376
5.0716052 -26.471941 -7.0557675 22.419231
5.0018616 -26.559042 -7.0747638 22.560772
4.9263344 -26.617428 -7.0861611 22.033918
4.8513527 -26.680361 -7.098825 21.544001
4.7709184 -26.714516 -7.1038904 21.580032
4.6970096 -26.786539 -7.1190867 21.880302
4.6139011 -26.835337 -7.1279516 21.94422
4.5263486 -26.830622 -7.1228862 22.711634
4.4499421 -26.892427 -7.13555 22.195528
4.3809543 -27.001762 -7.1608777 22.996738
4.305233 -27.072714 -7.1760745 22.901316
4.2276206 -27.133896 -7.1887383 23.64105
4.1467395 -27.175732 -7.1963363 23.264896
4.0606298 -27.183842 -7.1950703 23.470613
3.9704623 -27.197159 -7.1950703 23.689964
3.9021211 -27.329205 -7.2267299 23.935518
3.8283036 -27.427553 -7.2495246 23.244379
3.7499745 -27.496954 -7.2647214 24.007954
3.669971 -27.556543 -7.2773848 24.561325
3.5840051 -27.572735 -7.2786517 24.34174
3.5022404 -27.622244 -7.2887826 24.651896
3.4207945 -27.676313 -7.30018 23.842955
3.3448412 -27.778166 -7.3242416 24.248762
3.264895 -27.850986 -7.340704 24.155668
3.1785522 -27.914524 -7.3546343 23.830481
3.1015909 -27.976713 -7.3685646 23.517
3.0173156 -28.019983 -7.3774295 23.378635
2.9284055 -28.068321 -7.3875608 23.660103
2.8470421 -28.144754 -7.4052901 24.219055
2.7657034 -28.225765 -7.4242854 24.585299
2.6811342 -28.277653 -7.4356828 24.237688
2.5953839 -28.319653 -7.4445477 24.522921
2.5035908 -28.352196 -7.4508801 24.141068
2.4169784 -28.388836 -7.458478 23.781961
2.332535 -28.45414 -7.4736748 22.354755
2.2465618 -28.504725 -7.4850721 23.183149
2.1588328 -28.535755 -7.4914041 24.668461
2.0726819 -28.590639 -7.5040679 24.767021
1.9852037 -28.630787 -7.5129323 24.836164
1.8990932 -28.694798 -7.5281286 24.954971
1.8122946 -28.753723 -7.5420589 24.84433
1.720116 -28.812687 -7.5559893 24.952887
1.6315116 -28.851751 -7.5648541 24.173912
1.5437113 -28.909866 -7.5787845 25.353556
1.45459 -28.948389 -7.5876489 23.940659
1.3670714 -29.02529 -7.6066451 24.082607
1.2773724 -29.063267 -7.6155095 24.558329
1.1862582 -29.071968 -7.616776 25.430019
1.0952851 -29.085218 -7.6193085 25.675241
1.0064274 -29.161028 -7.6383047 24.943935
0.91648966 -29.217226 -7.652235 24.839384
0.82621169 -29.273144 -7.6661649 25.597281
0.73083454 -29.343422 -7.6838946 25.963369
0.63970864 -29.39393 -7.696558 25.615374
0.54809332 -29.434484 -7.7066894 26.377441
0.45615003 -29.469915 -7.7155542 25.989342
0.36411455 -29.514732 -7.7269516 25.63452
0.27216315 -29.597954 -7.7484798 26.026434
0.17951317 -29.651869 -7.7624102 26.137407
0.081325889 -29.70067 -7.775074 26.014275
-0.011987439 -29.724964 -7.7814054 25.843609
-0.10556136 -29.782824 -7.7966027 25.745184
-0.19959261 -29.854897 -7.815598 26.113525
-0.29357412 -29.87347 -7.8206635 26.377197
-0.38772884 -29.896584 -7.8269954 26.203878
-0.48241577 -29.943583 -7.8396597 25.652321
-0.57804942 -30.024132 -7.8611879 26.47608
-0.67344713 -30.070526 -7.8738523 26.353998
-0.76925772 -30.12145 -7.8877816 26.917089
-0.86982912 -30.14291 -7.894114 26.968372
-0.96605545 -30.188374 -7.9067779 27.071098
-1.0637649 -30.267368 -7.9283066 26.565134
-1.161237 -30.326712 -7.9447694 26.920538
-1.2581003 -30.361576 -7.9549007 26.338083
-1.3560482 -30.415461 -7.9700971 26.676306
-1.4598942 -30.473606 -7.9865603 26.807276
-1.5578376 -30.512346 -7.9979577 25.830784
-1.6562923 -30.555601 -8.0106211 26.346174
-1.7550342 -30.598539 -8.0232849 26.878696
-1.8552301 -30.660469 -8.0410147 26.162155
-1.9539949 -30.693106 -8.0511456 26.663727
-2.0533044 -30.730251 -8.0625429 26.970961
-2.1508436 -30.738125 -8.0663424 27.222471
-2.2393076 -30.62026 -8.0372152 27.439453
-2.3266857 -30.497324 -8.0068226 24.721582
-2.4232535 -30.499506 -8.0093546 25.71417
-2.5556006 -30.935242 -8.1258631 27.930979
-2.6635394 -30.989248 -8.1423254 28.065607
-2.764734 -31.024088 -8.1537218 27.701166
-2.8688421 -31.087498 -8.172718 28.08308
-2.9747441 -31.165005 -8.1955128 28.269585
-3.0735822 -31.165136 -8.1980467 28.060356
-3.1734316 -31.174572 -8.2031107 28.331915
-3.2753832 -31.202934 -8.2132425 28.184134
-3.3845611 -31.244799 -8.2271729 29.005337
-3.48805 -31.282085 -8.2398367 29.858025
-3.5890565 -31.295002 -8.2461691 28.923754
-3.6930044 -31.33161 -8.258832 28.557438
-3.7978053 -31.372675 -8.2727623 28.440855
-3.9011075 -31.398993 -8.2828941 28.070976
-4.0107112 -31.429066 -8.2942905 26.882767
-4.1188211 -31.488255 -8.3132868 26.625969
-4.2337565 -31.595016 -8.3449469 26.668705
-4.3415332 -31.643856 -8.3614092 26.993948
-4.4516654 -31.706705 -8.3816719 25.986212
-4.5608625 -31.759596 -8.3994007 26.11714
-4.6753502 -31.845612 -8.4259949 22.463396
-4.793294 -31.950356 -8.457655 25.812569
-4.9060807 -32.016422 -8.4791832 28.116974
-5.0223169 -32.101212 -8.5057774 24.150774
-5.1368489 -32.171257 -8.528573 18.957939
-5.2518735 -32.240891 -8.5513668 23.848392
-5.3673868 -32.310123 -8.5741615 25.263075
-5.4858079 -32.358917 -8.5918922 24.736591
-5.5981288 -32.403488 -8.6083546 22.025709
-5.7149711 -32.471493 -8.6311493 25.664442
-5.832304 -32.539082 -8.653944 22.304291
-5.9414363 -32.558666 -8.6640759 28.733585
-6.0405374 -32.491226 -8.6514111 29.274797
-6.1380935 -32.448326 -8.6450796 29.893093
-6.2409163 -32.433632 -8.6463451 29.017477
-6.3353577 -32.375889 -8.6362152 25.700298
-6.4530635 -32.436478 -8.6577435 28.475786
-6.562593 -32.453976 -8.6678743 22.910519
-6.6820226 -32.518486 -8.69067 21.550621
-6.7940292 -32.544682 -8.7033329 23.684984
-6.9102726 -32.589424 -8.7210627 24.989962
-7.0197396 -32.600655 -8.7299271 25.050451
-7.1391673 -32.629181 -8.7438574 26.469128
-7.2573614 -32.677422 -8.7628536 29.956587
-7.3759208 -32.725243 -8.7818499 29.889952
-7.4926972 -32.76321 -8.7983122 30.245855
-7.6108809 -32.805477 -8.816041 28.491644
-7.7360415 -32.875576 -8.8413687 26.480125
-7.8516302 -32.902866 -8.855299 29.61717
-7.9754148 -32.962666 -8.8780937 28.188168
-8.0985022 -32.992413 -8.8932905 25.541842
-8.2207785 -33.041912 -8.9135523 26.997471
-8.3304558 -33.039375 -8.9198847 27.754791
-8.4521542 -33.08334 -8.9388809 24.651962
-8.5730038 -33.122185 -8.9566097 22.188414
-8.695056 -33.140362 -8.9692736 23.231096
-8.8202257 -33.192356 -8.9908018 22.390482
-8.9370251 -33.211197 -9.0034666 26.958727
-9.0578327 -33.243626 -9.0199289 29.271509
-9.178936 -33.275623 -9.0363922 27.193869
-9.2925262 -33.27924 -9.0452566 29.46743
-9.4049234 -33.277809 -9.0528555 26.011316
-9.5253696 -33.303909 -9.0680513 30.467865
-9.6554804 -33.362106 -9.0921135 26.280462
-9.7738237 -33.378029 -9.1047764 25.754416
-9.8882475 -33.379627 -9.1136417 24.130579
-10.018042 -33.431801 -9.1364365 27.915554
-10.156672 -33.511265 -9.1668291 25.010616
-10.290421 -33.551399 -9.1870918 26.311705
-10.415819 -33.583588 -9.2048216 23.67923
-10.542976 -33.61993 -9.2238169 19.036489
-10.680715 -33.667782 -9.2466125 18.236725
-10.804144 -33.689335 -9.2618084 19.223475
-10.933782 -33.728851 -9.2820711 20.703884
-11.065274 -33.77248 -9.3035994 18.803577
-11.200197 -33.824799 -9.3276606 16.757183
-11.327879 -33.853668 -9.3453903 16.595922
-11.452756 -33.872906 -9.3605871 36.678154
-11.57318 -33.877953 -9.3719835 16.70841
-11.699663 -33.880543 -9.3833818 37.179035
-11.81128 -33.877651 -9.3922462 17.797056
-11.949261 -33.911297 -9.412508 21.791374
-12.093018 -33.978409 -9.4416351 20.122654
-12.222595 -34.003979 -9.4593649 20.212563
-12.352461 -34.029068 -9.4770937 18.740955
-12.485924 -34.062763 -9.4973555 20.405994
-12.628116 -34.118637 -9.5239496 20.542013
-12.760623 -34.146767 -9.5429459 19.656654
-12.895147 -34.178921 -9.5632076 18.57649
-13.02999 -34.210567 -9.5834694 18.670115
-13.157248 -34.203293 -9.5936012 22.800741
-13.266383 -34.166302 -9.5948677 21.628176
-13.401885 -34.19651 -9.6151295 18.816936
-13.537704 -34.226212 -9.6353922 39.595417
-13.675631 -34.259888 -9.6569204 39.193417
-13.808481 -34.279575 -9.6746492 39.669643
-13.945233 -34.307728 -9.694912 40.178646
-14.08279 -34.319469 -9.7113743 40.340813
-14.201632 -34.301872 -9.7189732 40.10247
-14.342869 -34.337433 -9.7417679 21.675272
-14.478833 -34.35907 -9.7607632 25.618502
-14.609408 -34.366837 -9.7759609 24.284754
-14.736355 -34.365227 -9.7886238 22.679508
-14.867275 -34.372044 -9.8038216 21.643648
-15.012117 -34.393486 -9.8240824 24.122662
-15.147368 -34.408134 -9.8418121 19.594624
-15.312288 -34.488594 -9.8785372 41.682468
-15.46996 -34.550694 -9.9101973 20.838467
-15.592353 -34.532784 -9.9190617 42.089169
-15.73883 -34.56728 -9.9431229 42.331692
-15.873583 -34.57481 -9.9595861 42.171169
-15.986181 -34.533554 -9.9621191 41.557266
-16.10891 -34.513844 -9.9709835 41.331867
-16.223427 -34.4762 -9.9747829 41.060497
-16.335592 -34.417839 -9.9735165 41.670074
-16.451988 -34.383804 -9.9785814 42.038746
-16.63135 -34.480087 -10.021638 41.211647
-16.792131 -34.520447 -10.049499 42.426525
-16.947323 -34.56308 -10.077359 43.362801
-17.087969 -34.574711 -10.096355 42.896778
-17.233149 -34.594467 -10.117884 42.789635
-17.37212 -34.600681 -10.135613 42.967464
-17.485106 -34.554569 -10.138146 43.985054
-17.597961 -34.508087 -10.140678 44.352257
-17.716728 -34.458138 -10.143211 70.432671
-17.853806 -34.458153 -10.159675 62.347427
-18.02911 -34.530533 -10.197665 65.818817
-18.196033 -34.585033 -10.230592 58.060547
-18.340843 -34.596077 -10.250854 61.013542
-18.520067 -34.670559 -10.290112 59.619808
-18.660973 -34.671841 -10.307841 56.887447
-18.792858 -34.655567 -10.320505 52.072536
-18.920179 -34.630325 -10.330636 46.196388
-19.056871 -34.621563 -10.345833 40.831787
-19.237249 -34.676624 -10.381291 36.079464
-19.407431 -34.725807 -10.414218 32.324352
-19.521175 -34.673096 -10.416751 28.904711
-19.627623 -34.607388 -10.415483 26.416941
-19.820204 -34.692562 -10.459807 24.611462
-20.027979 -34.802032 -10.511729 24.662659
-0.15973772 -0.18409207 -0.062796734 13.504101
-0.16031529 -0.18358932 -0.062796734 13.666798
-0.16398188 -0.18680546 -0.064063117 13.317209
-0.17080584 -0.19368213 -0.06659589 12.363015
-0.18452278 -0.20737022 -0.07166142 11.187398
-0.19144836 -0.2141522 -0.074194193 10.882421
-0.18267299 -0.2025353 -0.070395038 11.595426
-0.20859304 -0.23125286 -0.080526114 10.620601
-0.21249084 -0.2342477 -0.081792496 10.475996
-0.21326616 -0.23354213 -0.081792496 10.59641
-0.22038996 -0.24013306 -0.084325261 10.310375
-0.22114329 -0.2394395 -0.084325261 10.807261
-0.22511275 -0.24235447 -0.085591644 11.34407
-0.23556195 -0.25244844 -0.089390799 11.797464
-0.23311295 -0.24811654 -0.088124417 13.453865
-0.25665712 -0.27244547 -0.096989103 13.740079
-0.25755888 -0.27159321 -0.096989103 14.50342
-0.26823664 -0.28146073 -0.10078824 12.749791
-0.25597376 -0.26642057 -0.095722713 12.02748
-0.25021437 -0.25853771 -0.093189947 11.327168
-0.24771668 -0.25422207 -0.091923565 10.598388
-0.25515389 -0.26047796 -0.09445633 9.8122358
-0.25268456 -0.25612396 -0.093189947 9.0617342
-0.25683033 -0.25882524 -0.09445633 10.449395
-0.27951032 -0.26326355 -0.09952186 8.9694004
-0.28033602 -0.26238415 -0.09952186 9.0761786
-0.28115922 -0.26150173 -0.09952186 9.6506195
-0.28202453 -0.26056838 -0.09952186 10.165321
-0.2828418 -0.25968102 -0.09952186 10.302689
-0.28365618 -0.25879121 -0.09952186 10.165321
-0.28446779 -0.25789881 -0.09952186 10.738014
-0.28527683 -0.25700352 -0.09952186 10.738014
-0.28967404 -0.25934529 -0.10078824 11.572886
-0.29404438 -0.26171178 -0.10205463 12.797029
-0.28773046 -0.2542536 -0.09952186 16.573891
-0.31714842 -0.27939111 -0.10965293 16.712696
-0.31802452 -0.27839345 -0.10965293 13.435696
-0.29731014 -0.25799572 -0.10205463 12.370461
-0.2945551 -0.25378799 -0.10078824 10.901995
-0.29896969 -0.25607085 -0.10205463 9.0515566
-0.28525743 -0.24233788 -0.096989103 8.7020512
-0.29329506 -0.2478139 -0.09952186 10.443822
-0.33377767 -0.26710793 -0.11091931 7.862886
-0.33461517 -0.266058 -0.11091931 8.3482494
-0.33170199 -0.26194713 -0.10965293 8.5652571
-0.33256882 -0.26084569 -0.10965293 8.6736765
-0.33338669 -0.2597996 -0.10965293 8.6736765
-0.33797771 -0.26177326 -0.11091931 8.3482494
-0.33879843 -0.26071015 -0.11091931 8.4526033
-0.32063872 -0.244652 -0.1045874 8.501792
-0.32521054 -0.24663003 -0.10585378 7.8360744
-0.325984 -0.24560671 -0.10585378 7.5061345
-40.123417 -31.069471 -13.28511 32.232323
-40.320492 -31.019962 -13.318035 35.166588
-40.306309 -30.807949 -13.281311 34.242161
-40.352829 -30.643124 -13.264848 40.261021
-40.253422 -30.357674 -13.198996 49.659195
-40.298279 -30.19335 -13.182532 41.994339
-40.195072 -29.919279 -13.117948 41.896358
-40.094429 -29.64904 -13.054628 48.5182
-40.125019 -29.477093 -13.034366 54.300434
-39.998642 -29.191189 -12.963449 47.509266
-40.07449 -29.054026 -12.958383 49.227795
-40.110619 -28.888409 -12.940654 52.034241
-40.068516 -28.656725 -12.89633 40.319553
-40.138626 -28.516703 -12.889997 42.86961
-40.208263 -28.376514 -12.883667 47.371243
-40.218006 -28.19451 -12.858338 52.895363
-40.263645 -28.027817 -12.843142 59.914776
-40.347527 -27.898436 -12.841876 57.362549
-40.419018 -27.760593 -12.83681 56.157085
-40.494049 -27.625296 -12.833011 58.590565
-40.524582 -27.459948 -12.815282 53.868359
-40.466206 -27.235252 -12.769691 58.454823
-40.531464 -27.094543 -12.763359 58.441254
-40.563999 -26.932297 -12.746897 52.679886
-40.575733 -26.756784 -12.724102 54.784218
-40.684467 -26.635332 -12.730433 54.796963
-40.897701 -26.591776 -12.770958 50.736736
-41.00948 -26.481529 -12.779822 57.232361
-41.027328 -26.310785 -12.759561 70.73481
-40.84462 -26.012833 -12.677245 66.995163
-40.926567 -25.874659 -12.675979 63.801926
-40.974888 -25.725374 -12.665849 66.967064
-40.993935 -25.558134 -12.646852 65.288025
-41.000008 -25.383379 -12.624058 66.864037
-41.013626 -25.213905 -12.603795 70.330597
-41.150429 -25.120222 -12.621524 72.278679
-41.21674 -24.983295 -12.617725 68.562469
-41.303307 -24.858685 -12.620258 70.373322
-41.285866 -24.662024 -12.589865 72.194313
-41.396416 -24.55195 -12.599996 70.320747
-41.452511 -24.409504 -12.593664 74.210114
-41.466358 -24.242527 -12.574669 66.742279
-41.525578 -24.102428 -12.569603 70.241875
-41.617863 -23.981504 -12.574669 70.25502
-41.713982 -23.862658 -12.581 72.170685
-41.712971 -23.678818 -12.556939 78.468918
-41.660744 -23.476397 -12.518948 78.358727
-41.700523 -23.326502 -12.508816 78.909554
-41.769375 -23.193031 -12.50755 77.753944
-41.858971 -23.071045 -12.512616 77.768539
-41.918514 -22.932457 -12.508816 78.329338
-41.951817 -22.770254 -12.496153 78.872559
-41.920959 -22.583263 -12.465759 77.071068
-41.936249 -22.421806 -12.449297 71.819679
-41.814224 -22.187893 -12.392309 76.86113
-41.810974 -22.018093 -12.370781 76.799591
-42.137135 -22.021086 -12.446764 68.130203
-42.433666 -22.006653 -12.513882 64.968216
-42.682743 -21.95657 -12.565804 62.065498
-42.764435 -21.828966 -12.569603 60.663433
-42.884583 -21.720743 -12.5848 62.109066
-43.052002 -21.635876 -12.613926 70.356895
-43.119762 -21.500515 -12.613926 70.356895
-42.566502 -21.048588 -12.431566 55.32457
-42.754005 -20.974424 -12.467026 54.266869
-42.941456 -20.89929 -12.502484 68.271088
-42.893658 -20.709583 -12.469559 68.187836
-42.954144 -20.572636 -12.468292 59.093369
-42.328312 -20.109547 -12.268204 52.789413
-43.283005 -20.387598 -12.52528 52.251381
-43.517735 -20.331402 -12.574669 54.483494
-43.638439 -20.221029 -12.591131 65.154007
-43.670986 -20.0697 -12.582267 51.354614
-43.782234 -19.954475 -12.596197 45.284981
-43.659603 -19.733122 -12.543009 45.97533
-43.54483 -19.516716 -12.492353 76.044952
-43.667809 -19.407328 -12.510082 57.898308
-44.051655 -19.412489 -12.60253 56.860386
-44.062603 -19.243052 -12.587332 48.562538
-44.171658 -19.125687 -12.601262 49.487289
-43.98708 -18.881847 -12.531611 60.578285
-43.844715 -18.64876 -12.473357 60.447731
-43.157757 -18.037056 -12.245409 39.95792
-43.169518 -17.882872 -12.232744 81.106911
-43.247856 -17.75635 -12.239077 79.896927
-43.325829 -17.629511 -12.245409 64.322517
-43.955173 -17.724941 -12.407506 56.451214
-44.015133 -17.588558 -12.408772 60.302994
-44.101646 -17.462671 -12.417637 63.195385
-44.159313 -17.316328 -12.417637 68.056557
-43.997093 -17.093399 -12.356851 79.645493
-43.987381 -16.930758 -12.339121 66.161606
-44.044872 -16.794216 -12.340387 76.712723
-43.957146 -16.602757 -12.301129 66.067947
-44.031742 -16.473057 -12.307462 53.945755
-43.951752 -16.285885 -12.270737 49.806053
-43.882912 -16.095057 -12.236545 39.348495
-43.987808 -15.976947 -12.25174 31.033497
-44.01503 -15.830486 -12.245409 26.372229
-44.082771 -15.698623 -12.250475 97.693428
-0.61781341 -0.20194095 -0.16917297 9.9733124
-0.62761772 -0.2030718 -0.17170574 11.940201
-0.66957414 -0.21479686 -0.1831032 14.191095
-0.67484164 -0.21419993 -0.18436958 14.987045
-0.6755113 -0.21207862 -0.18436958 13.882736
-0.67156887 -0.20847641 -0.1831032 12.951097
-0.66764611 -0.20478535 -0.18183681 11.631845
-0.65905637 -0.19978924 -0.17930403 10.303394
-0.650442 -0.19484901 -0.17677127 20.77898
-0.65165341 -0.19075829 -0.17677127 5.9871635
-0.6476168 -0.18731932 -0.17550489 5.0334363
-0.643565 -0.18390778 -0.1742385 4.4093614
-0.64413965 -0.18188487 -0.1742385 4.2042747
-0.64006227 -0.17851296 -0.17297213 4.0647197
-0.64530075 -0.17772153 -0.1742385 4.0174184
-0.64585584 -0.17569335 -0.1742385 4.0174184
-43.233326 -11.933862 -11.741387 25.875219
-43.228607 -11.786533 -11.729991 30.074394
-43.267456 -11.643115 -11.729991 32.329979
-43.247723 -11.492211 -11.714794 31.91234
-43.157299 -11.323124 -11.680602 27.758366
-43.042824 -11.14865 -11.640077 46.027344
-0.89585608 -0.21304275 -0.24009046 7.8871517
-0.97173613 -0.22845149 -0.26035261 10.080985
-0.972449 -0.22539775 -0.26035261 9.5504065
-0.9590283 -0.21901271 -0.25655344 8.7591991
-0.96446097 -0.21692505 -0.25781983 7.85324
-0.96042264 -0.21281545 -0.25655344 11.280787
-0.93813199 -0.20152998 -0.25022155 2.7001116
-0.9434855 -0.19961625 -0.25148791 5.7955804
-0.93465143 -0.1946118 -0.24895516 5.6039658
-0.92579538 -0.18966484 -0.2464224 4.1599855
-0.91691744 -0.18477517 -0.24388961 3.7653275
-40.089951 -8.2369223 -10.714351 43.618351
-39.992363 -8.0859995 -10.681424 53.978245
-38.727242 -7.7034216 -10.336968 66.190071
-37.583538 -7.3530431 -10.025438 42.508202
-37.298973 -7.1689801 -9.9431229 42.006065
-36.941093 -6.979845 -9.8418121 19.594624
-36.430218 -6.7647605 -9.6999769 19.804794
-35.827961 -6.5364361 -9.5340805 22.06496
-35.66264 -6.3905368 -9.4846916 20.686172
-35.287159 -6.2088203 -9.3795815 16.740627
-34.788021 -6.0020299 -9.2415466 17.125633
-34.420418 -5.8272433 -9.1389694 32.623611
-33.93755 -5.635778 -9.0059986 20.751352
-31.205299 -5.0808144 -8.2765617 15.761235
-23.870296 -3.8079689 -6.3275971 11.204362
-30.113607 -4.7087855 -7.9789615 23.796764
-29.990402 -4.5876565 -7.9422364 38.567726
-26.340532 -3.9438453 -6.9721866 56.065659
-26.376722 -3.8645859 -6.978519 34.199352
-16.324614 -2.3368185 -4.3165798 11.919568
-16.418095 -2.297627 -4.339375 10.574505
-16.655252 -2.2775853 -4.4001613 10.092927
-29.832533 -3.9842501 -7.8789172 32.717831
-29.955215 -3.9049129 -7.9080439 30.466558
-30.221642 -3.8431821 -7.9751625 29.123459
-30.511969 -3.7828033 -8.0486126 28.980991
-30.807016 -3.7212114 -8.1233292 28.142881
-31.400452 -3.6874163 -8.2765617 28.938667
-31.705023 -3.622304 -8.3538113 29.344532
-31.894117 -3.5424747 -8.4006681 29.261703
-31.938751 -3.4459043 -8.4095325 29.335199
-31.930178 -3.3435204 -8.4044666 29.060701
-32.046391 -3.2539709 -8.4323273 27.958992
-32.176796 -3.1651394 -8.4639864 28.643335
-32.095623 -3.0497141 -8.4399252 30.069122
-32.278446 -2.9648297 -8.4855156 30.21133
-32.499592 -2.8822532 -8.5412359 31.97476
-32.922947 -2.8156688 -8.6501455 35.013008
-32.79665 -2.7010782 -8.614686 35.626736
-32.901413 -2.6056945 -8.6400137 36.891861
-32.885757 -2.4947317 -8.6336823 35.813946
-33.071926 -2.4044266 -8.6805382 35.306461
-33.180645 -2.3075826 -8.7071323 35.884796
-33.250473 -2.2075078 -8.7235947 35.724621
-33.305519 -2.1061068 -8.7362595 32.642227
-33.316795 -2.0017455 -8.737525 33.193211
-33.347069 -1.8984538 -8.7438574 33.809315
-33.372189 -1.7947226 -8.7489233 31.723288
-33.397278 -1.6850246 -8.7539892 30.797031
-33.431396 -1.5814714 -8.7615871 30.396603
-33.402374 -1.4749337 -8.7527218 30.323473
-33.397179 -1.369598 -8.7501898 35.353039
-33.415817 -1.2652215 -8.7539892 36.021526
-33.424458 -1.1604116 -8.7552547 35.715038
-33.389263 -1.0541615 -8.7451239 33.820972
-33.281204 -0.94608337 -8.7159967 35.025169
-33.148624 -0.83807051 -8.6805382 36.278194
-33.233299 -0.73576176 -8.7020664 36.492661
-33.216213 -0.62518328 -8.6970015 36.442135
-33.184158 -0.52028966 -8.6881361 35.69878
-33.214577 -0.42220798 -8.695735 35.45372
-33.288342 -0.31275782 -8.7147303 33.262405
-33.414921 -0.20898853 -8.7476568 30.281723
-33.483128 -0.10423453 -8.7653856 32.37537
-33.488129 0.00095696683 -8.7666521 33.735943
-33.463757 0.1119329 -8.7603207 33.960991
-33.468079 0.21708572 -8.7615871 32.867874
-33.515598 0.32268503 -8.774251 31.942263
-33.519257 0.4280301 -8.7755175 31.215857
-33.493561 0.53296137 -8.7691851 29.787474
-33.482052 0.63800102 -8.7666521 29.767012
-33.508896 0.74381691 -8.774251 30.501259
-33.501408 0.85481071 -8.7729836 31.43623
-33.416363 0.95772475 -8.7514553 30.313034
-33.326168 1.0599362 -8.7286606 29.679178
-33.453194 1.1691728 -8.7628536 27.32526
-33.541191 1.2777365 -8.7869139 31.801674
-33.52227 1.3883599 -8.7831154 30.574638
-33.585392 1.4966768 -8.8008442 30.492447
-33.628845 1.6044625 -8.813509 30.370323
-33.613674 1.7154886 -8.810976 31.039316
-33.588802 1.8200306 -8.8059101 29.649178
-33.612228 1.9213359 -8.813509 29.710096
-33.63464 2.0345347 -8.8211069 31.848135
-33.603947 2.138653 -8.8147745 31.071173
-33.572933 2.242615 -8.8084431 21.324932
-33.556068 2.3473887 -8.8059101 22.236881
-33.543705 2.4524543 -8.8046436 23.780144
-33.526188 2.5570908 -8.8021107 24.923086
-33.53199 2.6693952 -8.8059101 26.918325
-33.537899 2.7759295 -8.8097095 27.674238
-33.553108 2.8833456 -8.816041 27.721598
-33.548706 2.9891634 -8.8173084 27.001308
-33.534332 3.0941029 -8.816041 25.017054
-33.457035 3.193013 -8.7983122 22.191252
-33.378872 3.2973006 -8.7805824 28.219706
-33.296165 3.3948116 -8.7615871 25.915045
-33.280525 3.4988866 -8.7603207 22.962252
-33.269367 3.6034245 -8.7603207 30.159389
-33.248272 3.7068493 -8.7577877 29.478678
-33.260487 3.8140352 -8.7641191 24.080528
-33.310104 3.9316776 -8.7805824 24.188314
-33.292786 4.0357175 -8.7793159 29.869436
-33.332745 4.1468492 -8.7932463 22.160854
-33.401123 4.2619395 -8.8147745 18.309795
-33.421143 4.3712287 -8.8236399 21.412582
-33.450394 4.4819851 -8.8350372 21.935448
-33.43615 4.5870442 -8.8350372 27.130686
-33.431152 4.693409 -8.8375692 22.427599
-33.42498 4.8056207 -8.8401031 18.435238
-33.433647 4.9141097 -8.8464346 31.819502
-33.441959 5.0227175 -8.852767 15.461137
-33.535984 5.1445861 -8.8818932 32.37286
-33.62479 5.2663713 -8.9097538 32.364128
-33.641514 5.3773203 -8.9186182 15.061799
-33.623497 5.4888425 -8.9186182 19.524557
-33.564121 5.5814514 -8.9072208 26.951862
-33.574043 5.697566 -8.9148188 24.494358
-33.579807 5.8071404 -8.9211512 20.289204
-33.551868 5.9109302 -8.9186182 23.961948
-33.514091 6.012888 -8.9135523 21.487789
-33.518829 6.122489 -8.9198847 20.282349
-33.493584 6.2327323 -8.9186182 18.82725
-33.445324 6.3325253 -8.9110203 19.852642
-33.434761 6.439394 -8.9135523 22.889164
-33.419117 6.5453234 -8.9148188 22.896904
-33.37941 6.6465068 -8.9097538 22.379446
-33.344143 6.7484727 -8.9059544 20.20706
-33.313305 6.8512402 -8.9034224 25.001341
-33.272675 6.951911 -8.8983564 20.972706
-33.184425 7.0423555 -8.8806276 24.849297
-33.080505 7.1350398 -8.8590984 29.647413
-32.991772 7.2244673 -8.8413687 26.480125
-32.883919 7.3091898 -8.818574 27.010532
-32.804173 7.3997107 -8.8033781 30.513336
-32.794907 7.5059676 -8.8071766 29.659328
-32.785301 7.6122313 -8.810976 29.265627
-32.737679 7.7096615 -8.8046436 30.523777
-32.699188 7.8090901 -8.8008442 30.266577
-32.641582 7.9038272 -8.7919798 29.972065
-32.591705 8.0062637 -8.7856483 29.487093
-32.538227 8.1016006 -8.7780495 30.764006
-32.475098 8.1943254 -8.7679195 31.151579
-32.402328 8.2843294 -8.7552547 31.044611
-32.33868 8.3763981 -8.7451239 30.26087
-32.270092 8.4669132 -8.7337265 29.501652
-32.149837 8.5434198 -8.7083988 20.32955
-32.009228 8.6198225 -8.6780052 14.968095
-31.865318 8.6885471 -8.6463451 29.676966
-31.670004 8.742322 -8.6007566 28.86858
-31.474667 8.7949467 -8.5551662 27.679558
-31.246731 8.8372164 -8.5007124 20.011625
-31.028139 8.8808079 -8.4487896 13.834885
-30.786354 8.916399 -8.3905363 35.069515
-0.5416885 0.19999623 -0.15017723 5.1642737
-0.53650546 0.20006138 -0.14891084 5.4131427
-0.53129286 0.2001877 -0.14764445 5.8970075
-0.52612013 0.2001904 -0.14637806 6.4616017
-0.52548856 0.2018424 -0.14637806 6.8361874
-0.52485192 0.20349216 -0.14637806 6.8361874
-0.52420998 0.20514005 -0.14637806 6.5513468
-0.51904309 0.20506345 -0.14511168 7.2366424
-0.51839602 0.20669349 -0.14511168 9.0116701
-0.52221668 0.21016265 -0.14637806 13.477051
-0.52155387 0.21180211 -0.14637806 14.740531
-0.5163883 0.21165977 -0.14511168 8.3792706
-0.51572078 0.21328105 -0.14511168 9.3650675
-0.51056188 0.21309203 -0.14384529 8.338439
-0.50988984 0.2146951 -0.14384529 7.4404526
-0.51368755 0.21813242 -0.14511168 14.695955
-0.51296163 0.21983427 -0.14511168 14.25727
-0.49887988 0.21584915 -0.14131252 13.050663
-0.50715154 0.22108573 -0.14384529 10.075611
-0.49751356 0.21897988 -0.14131252 11.271026
-0.49168873 0.22018044 -0.14004615 6.6961732
-24.600294 11.974058 -7.1621442 11.609649
-24.445297 11.993782 -7.1279516 18.368126
-24.364134 12.04909 -7.1152878 9.4976244
-24.306728 12.121183 -7.1102223 8.6805105
-28.80267 14.474948 -8.4386587 10.269948
-28.709579 14.54134 -8.4247284 9.590313
-28.650835 14.624855 -8.420929 9.7838602
-28.578936 14.70153 -8.413331 9.4609289
-28.524019 14.786793 -8.410799 10.07751
-28.474831 14.881294 -8.410799 10.663411
-28.423655 14.968432 -8.4095325 10.784999
-28.346582 15.041778 -8.4006681 13.854969
-28.329046 15.146723 -8.4095325 12.223
-28.242989 15.215008 -8.3981342 12.183632
-28.178047 15.294429 -8.3930683 13.618836
-28.091661 15.362001 -8.3816719 15.95645
-28.034792 15.445507 -8.3791389 14.899415
-27.960745 15.519432 -8.3715401 16.794542
-27.879574 15.595546 -8.3626757 19.247295
-27.796728 15.664059 -8.3525448 25.056082
-27.71793 15.7346 -8.3436794 23.677465
-27.647369 15.809596 -8.3373489 21.905392
-27.580793 15.886728 -8.332283 21.352949
-27.505642 15.95874 -8.3246851 20.811174
-27.426138 16.02799 -8.3158197 19.404701
-27.351992 16.106585 -8.3094883 16.500017
-27.301252 16.19244 -8.3094883 14.370984
-20.123646 12.023069 -6.1363735 6.3623214
-27.124361 16.318787 -8.2866926 9.4170246
-27.039864 16.383869 -8.2765617 14.959818
-0.90515321 0.57207662 -0.27934834 5.4115062
-0.95661336 0.60834128 -0.29581136 8.8862257
-0.95469749 0.61134356 -0.29581136 13.964067
-0.95277214 0.61433989 -0.29581136 27.928135
-0.95083755 0.6173299 -0.29581136 29.324543
-0.94889331 0.62031424 -0.29581136 14.662271
-0.94288367 0.62065715 -0.29454497 14.763133
-25.915981 17.554647 -8.1942463 9.3685389
-25.856709 17.633257 -8.1929808 11.487857
-25.785234 17.703447 -8.1879148 15.64225
-25.705608 17.767879 -8.1803169 11.148413
-25.602871 17.822636 -8.1663866 11.553485
-25.515062 17.880775 -8.1562557 12.006195
-25.411325 17.927395 -8.1410589 13.470964
-25.283886 17.956736 -8.1182632 11.392379
-25.184061 18.005146 -8.1043339 14.992924
-25.037056 18.019217 -8.0752068 19.820335
-24.988161 18.103451 -8.0777397 25.244678
-24.931164 18.181866 -8.0777397 24.50219
-24.811518 18.214323 -8.057477 20.703005
-24.715977 18.27062 -8.0460796 15.572474
-24.604115 18.307772 -8.0283508 13.032212
-24.550354 18.387873 -8.0296173 12.078485
-24.480875 18.456175 -8.0258179 13.232493
-24.427244 18.543104 -8.0283508 14.404022
-24.35734 18.610941 -8.0245514 17.449089
-24.268068 18.663794 -8.0144205 17.396832
-24.182539 18.719217 -8.0055552 19.416801
-24.093081 18.771322 -7.9954247 18.908325
-24.018761 18.834986 -7.9903593 20.816298
-23.910107 18.871399 -7.973896 21.834358
-23.839333 18.937405 -7.9700971 20.691229
-23.753281 18.991058 -7.9612322 22.356384
-23.678419 19.053467 -7.9561667 22.960419
-23.603403 19.115589 -7.9511008 21.115822
-23.521141 19.178473 -7.9447694 22.24683
-23.427114 19.224665 -7.9333715 23.304014
-23.355408 19.288937 -7.9295726 23.277548
-23.253773 19.328209 -7.9156423 23.012672
-23.166962 19.37945 -7.9067779 23.289108
-23.076361 19.427217 -7.896647 23.048914
-22.989374 19.477736 -7.8877816 22.987587
-22.898613 19.524771 -7.8776512 24.338875
-22.808048 19.578545 -7.8687863 23.543932
-22.75375 19.656425 -7.8713193 22.87397
-22.673634 19.711945 -7.8649874 22.341129
-22.593388 19.767157 -7.858655 17.343285
-22.52754 19.83485 -7.857389 20.530249
-14.270802 12.648149 -4.9915624 4.0425215
-22.348309 19.927725 -7.8383927 18.919157
-21.241283 20.56496 -7.739615 10.454487
-21.155653 20.618406 -7.7332835 13.180094
-21.070042 20.664455 -7.7256846 14.696445
-20.987801 20.713564 -7.7193532 20.21797
-20.895164 20.752131 -7.7092218 20.155203
-20.80249 20.790325 -7.699091 20.650682
-20.672253 20.790428 -7.6750298 21.704037
-20.586437 20.834625 -7.6674314 20.450264
-20.500542 20.878494 -7.659833 19.850925
-20.394037 20.908278 -7.6459026 21.509651
-20.30468 20.947939 -7.6370378 21.450703
-20.218626 20.990732 -7.6294398 21.244051
-20.095718 20.994749 -7.6079111 20.949638
-20.032991 21.061289 -7.6091776 20.084641
-19.893614 21.046799 -7.5813174 18.863255
-19.827394 21.109194 -7.5813174 19.373075
-19.747768 21.157244 -7.5762515 17.45542
-19.621588 21.162319 -7.5547233 17.771891
-19.522219 21.188297 -7.5420589 19.136845
-19.410252 21.192633 -7.5230637 18.522579
-19.333355 21.249729 -7.5205307 20.385468
-19.130222 21.1597 -7.4673424 20.645153
-18.882586 21.018238 -7.3964252 20.185717
-18.816456 21.077461 -7.3964252 20.185717
-18.750145 21.136471 -7.3964252 20.491562
-18.683655 21.195269 -7.3964252 11.085597
-18.671169 21.315702 -7.4179535 10.807473
-18.648588 21.42532 -7.4356828 20.439245
-18.501486 21.39925 -7.4052901 19.945103
-18.415243 21.435265 -7.3976912 17.346006
-18.181334 21.298063 -7.3305731 18.39234
-18.023563 21.248131 -7.293848 18.17622
-17.922426 21.263969 -7.2799177 18.881392
-17.839996 21.301638 -7.2735858 19.261518
-17.776087 21.361294 -7.2748528 20.165659
-17.708239 21.423847 -7.2761188 16.265217
-17.683832 21.531698 -7.293848 10.386411
-17.619164 21.590891 -7.2951145 19.395887
-17.511627 21.597309 -7.2786517 20.035126
-17.437624 21.644682 -7.2761188 18.858223
-17.3514 21.676701 -7.2685204 18.811945
-17.192097 21.624348 -7.2317953 18.589281
-17.124069 21.678257 -7.2317953 19.144186
-17.028999 21.697704 -7.2203979 19.362364
-16.9072 21.682446 -7.1976032 18.932251
-16.850855 21.750742 -7.2026682 18.684677
-16.761776 21.776752 -7.1938038 19.195293
-16.642447 21.770748 -7.1735415 19.214186
-16.547636 21.78826 -7.1621442 18.854769
-16.449966 21.801531 -7.1494803 9.0481701
-16.329159 21.783447 -7.1266856 18.777761
-16.243296 21.811371 -7.1190867 18.730865
-16.137276 21.81176 -7.1026244 18.21553
-16.062946 21.854551 -7.1000915 18.066492
-15.962826 21.86194 -7.0861611 18.389212
-15.865649 21.872839 -7.0734973 18.591927
-15.75344 21.87039 -7.0557675 18.76959
-15.664939 21.892246 -7.0469031 18.714455
-15.570859 21.905872 -7.0355058 18.220001
-15.47964 21.923075 -7.0253749 18.438068
-15.376293 21.930733 -7.0114446 9.1763496
-15.290731 21.955116 -7.0038462 18.166508
-15.202406 21.97521 -6.9949813 18.537342
-15.048357 21.899292 -6.9557238 18.43936
-14.848541 21.754734 -6.8949375 18.653275
-14.869721 21.933374 -6.936728 18.038008
-14.806151 21.988001 -6.9392605 17.643072
-14.715485 22.002245 -6.9291291 16.117792
-14.627552 22.020164 -6.9202647 16.768435
-14.547637 22.04987 -6.9151998 14.438107
-14.449114 22.05097 -6.9012694 14.370406
-14.340181 22.03545 -6.8822732 17.177055
-14.268262 22.076328 -6.8810072 16.668392
-14.179291 22.099104 -6.8734088 13.557748
-14.096798 22.123146 -6.8670769 9.7966375
-13.96897 22.066807 -6.8366833 16.913406
-13.859677 22.055679 -6.818954 17.887552
-13.80057 22.11552 -6.8240199 15.998612
-13.72592 22.150549 -6.8214869 15.540798
-13.618229 22.131775 -6.8024912 17.37047
-13.548627 22.174452 -6.8024912 16.229345
-13.471372 22.2045 -6.7986917 16.2083
-13.379079 22.209427 -6.7872944 13.824385
-13.301782 22.238901 -6.7834954 12.005587
-13.209617 22.243155 -6.7720981 15.717299
-13.110172 22.234556 -6.7569017 14.790432
-13.03048 22.258936 -6.7518358 26.97753
-7.7081637 13.26811 -4.0164471 7.7131605
