# .PCD v0.7 - Point Cloud Data file format
VERSION 0.7
FIELDS x y z intensity
SIZE 4 4 4 4
TYPE F F F F
COUNT 1 1 1 1
WIDTH 1151
HEIGHT 1
VIEWPOINT 0 0 0 1 0 0 0
POINTS 1151
DATA ascii
-0.4421508 -0.36661556 -0.044772495 5.7377777
-0.45210034 -0.370233 -0.045412071 4.572432
-0.46861115 -0.38156798 -0.046691224 4.3707423
-0.46980751 -0.38009402 -0.046691224 4.5180712
-0.45171219 -0.36279047 -0.045092281 4.8904037
-0.44898233 -0.35821667 -0.044772495 5.3127565
-0.43847382 -0.34738186 -0.043813132 5.9379745
-0.45122421 -0.35538852 -0.044772495 5.6622801
-0.45233849 -0.35396922 -0.044772495 5.8949766
-0.4651683 -0.36185887 -0.045731861 5.8581452
-0.45846993 -0.35421205 -0.045092281 6.1661611
-0.4517284 -0.34661075 -0.044452708 6.2181311
-0.4646222 -0.35439157 -0.045412071 5.8425522
-0.46573329 -0.35293016 -0.045412071 5.6846447
-0.4787046 -0.36059248 -0.046371434 5.0831437
-0.44415477 -0.33181718 -0.043493345 5.1780787
-0.43724716 -0.32438505 -0.042853769 5.5541968
-0.97215575 -0.24876298 -0.072274238 5.4030585
-0.99225402 -0.25071168 -0.073553383 5.8325329
-0.99303693 -0.24759147 -0.073553383 7.045238
-0.98417562 -0.24185935 -0.072913811 6.952229
-0.98493034 -0.23876813 -0.072913811 6.0758977
-0.97109753 -0.2322721 -0.071954452 5.1446619
-0.96212357 -0.22687013 -0.071314879 3.8424191
-0.94899774 -0.2172215 -0.070355512 3.57494
-0.96911746 -0.21875259 -0.071634665 3.2760093
-0.98925596 -0.22015935 -0.072913811 2.9632447
-1.0142802 -0.22253977 -0.07451275 4.8260961
-1.1464891 -0.24858057 -0.083147019 2.9830775
-1.1862588 -0.25351527 -0.085705318 4.0937605
-1.0943745 -0.22980101 -0.079629354 3.0250635
-1.1097338 -0.2294715 -0.080588721 4.6132669
-1.1299858 -0.23006922 -0.081867874 4.084084
-1.1649143 -0.23355931 -0.084106386 3.7957947
-1.1362995 -0.22395523 -0.08218766 2.9805553
-1.1321039 -0.21940912 -0.081867874 4.5589776
-1.1278911 -0.2148916 -0.08154808 4.3535428
-1.1089622 -0.20756978 -0.080268927 3.9008813
-1.0949013 -0.20129755 -0.07930956 3.1074517
-1.3252987 0.35767809 -0.095938526 1.7089856
-1.3145311 0.35925022 -0.095298946 2.1809664
-0.69053876 0.24893506 -0.055005703 3.7477005
-0.69915855 0.25443956 -0.055645276 4.0732894
-0.69835579 0.2566348 -0.055645276 4.5053043
-0.70693034 0.26222253 -0.056284852 4.7755065
-0.69672948 0.26101768 -0.055645276 5.7182713
-0.7286756 0.27529421 -0.057883788 6.1534781
-0.73248392 0.27932233 -0.058203582 7.4092999
-0.70829737 0.2727181 -0.056604639 8.5435839
-0.69810593 0.27140296 -0.055965066 8.720212
-0.69254369 0.27192909 -0.055645276 8.7455931
-0.70099425 0.2777023 -0.056284852 8.0918312
-0.69086874 0.27615625 -0.055645276 7.8250022
-0.68995005 0.27844405 -0.055645276 9.1492357
-0.71689075 0.29167491 -0.057564002 8.6730986
-0.70207894 0.2883496 -0.056604639 10.984608
-0.73354328 0.30366635 -0.058843154 10.642875
-0.73258555 0.30596954 -0.058843154 12.950969
-0.71316892 0.30066052 -0.057564002 12.860111
-0.707614 0.30098262 -0.057244215 12.023287
-0.70206404 0.30127302 -0.056924429 11.084526
-0.701114 0.30347732 -0.056924429 10.103593
-0.67262524 0.29391789 -0.055005703 9.5610628
-0.67628098 0.29800406 -0.055325489 6.676343
-0.68449402 0.30410478 -0.055965066 13.080318
-0.63693297 0.28822398 -0.052767187 3.9843287
-0.64513904 0.29428709 -0.05340676 4.2088194
-65.146767 33.07196 -4.6903286 27.595787
-64.722694 33.112858 -4.6673036 29.762486
-64.418777 33.213135 -4.6529136 30.78677
-63.937733 33.219837 -4.6257315 29.618992
-63.426353 33.207634 -4.5963111 27.005325
-62.589073 33.020309 -4.5432258 26.27857
-61.3568 32.85099 -4.4683957 29.768225
-60.883045 32.857613 -4.4418535 30.398195
-59.91153 32.576836 -4.3785357 32.128014
-59.047405 32.34782 -4.3228922 34.129723
-58.705196 32.400593 -4.3053041 32.694927
-58.136478 32.325439 -4.2710867 33.916149
-57.399017 32.151958 -4.2243977 35.189903
-57.054363 32.194813 -4.2064896 34.123775
-56.706947 32.221008 -4.187942 34.5326
-56.21999 32.178452 -4.1594806 35.952747
-55.736919 32.147835 -4.1316595 37.508991
-55.359509 32.162388 -4.1111932 35.738811
-54.926575 32.142117 -4.0865693 35.105755
-54.584587 32.172653 -4.0686612 32.628433
-54.105633 32.119881 -4.0405197 31.646965
-53.790329 32.161663 -4.0245304 27.543905
-53.42104 32.156475 -4.0040641 23.627008
-53.198917 32.263584 -3.9954298 37.462505
-1.1959951 0.74233329 -0.098177046 3.215029
-1.2021413 0.75134081 -0.098816618 3.634933
-1.1465586 0.72724187 -0.09497916 6.7331705
-1.1484869 0.73350561 -0.095298946 11.559121
-1.1336764 0.72887295 -0.094339587 15.637663
-1.1313812 0.7324307 -0.094339587 16.754641
-1.1290743 0.73598176 -0.094339587 8.2303495
-1.1224455 0.73700058 -0.0940198 22.449903
-46.835423 31.503162 -3.6254354 24.459896
-46.554428 31.527046 -3.6113646 24.151979
-46.281986 31.555111 -3.5979335 23.3557
-46.059204 31.615644 -3.5883398 23.326035
-1.0712072 0.76758718 -0.092420861 2.6862843
-1.0687903 0.77094877 -0.092420861 2.4176557
-1.0380052 0.7539109 -0.090182349 2.8517816
-1.0396737 0.76009387 -0.090502135 2.5998824
-0.98082274 0.72221673 -0.086025104 2.5053236
-1.0187837 0.75480634 -0.08922299 1.7477839
-0.984294 0.73429263 -0.086664684 1.4069614
-42.640221 31.698099 -3.4130964 27.687099
-42.348652 31.688419 -3.3977463 31.63369
-41.981823 31.620207 -3.3763208 34.545475
-41.74707 31.649464 -3.3654478 38.806019
-41.524464 31.68663 -3.3555346 38.753475
-41.353466 31.762238 -3.3497782 40.157146
-41.032394 31.721113 -3.3318703 40.058712
-40.841949 31.779398 -3.3245151 40.773346
-40.685276 31.874662 -3.3203578 42.348095
-40.480797 31.908754 -3.3114038 44.93948
-40.263062 31.94276 -3.30181 43.964237
-40.072834 31.997477 -3.2944551 40.604984
-39.851521 32.026337 -3.2845416 40.549465
-39.676991 32.09177 -3.2784657 38.344959
-39.382477 32.058769 -3.2624764 41.203297
-39.200493 32.115952 -3.2557609 43.685276
-39.091717 32.232578 -3.2551212 41.161312
-39.067059 32.418961 -3.261517 42.845741
-39.014809 32.583107 -3.2656741 37.605629
-38.131134 32.254078 -3.2087519 42.532494
-37.873825 32.241112 -3.1956406 45.164516
-37.681389 32.282047 -3.1879659 43.274586
-37.530651 32.357918 -3.1838086 44.150417
-37.394894 32.446228 -3.1809304 46.051434
-37.243908 32.520893 -3.1767733 49.235622
-37.092815 32.594933 -3.1726158 48.088577
-36.904259 32.635281 -3.1652608 48.03896
-36.700897 32.661507 -3.1566265 51.491508
-36.453133 32.646828 -3.1441548 58.540276
-36.305908 32.721111 -3.1403174 51.373432
-36.158562 32.794796 -3.1364799 47.844795
-35.918991 32.783772 -3.1246476 52.541492
-35.672474 32.764839 -3.1121759 49.951363
-35.419121 32.7379 -3.0990648 47.592384
-35.126083 32.672318 -3.0824358 47.480202
-34.892097 32.659782 -3.0709233 45.341568
-34.676727 32.663177 -3.0610101 47.335659
-34.505116 32.706753 -3.054934 49.546806
-34.301094 32.718567 -3.04598 45.180607
-34.093727 32.725975 -3.0367062 46.123455
-33.921085 32.754215 -3.0299907 50.57468
-33.800133 32.843231 -3.0283918 60.973167
-33.596867 32.851597 -3.0194376 50.498276
-33.404572 32.869495 -3.0114429 48.094326
-33.21249 32.886517 -3.0034482 48.039131
-33.020634 32.90266 -2.9954534 49.126427
-32.811394 32.900253 -2.9858599 52.832359
-32.623554 32.918133 -2.9781852 51.454613
-32.428947 32.928024 -2.9698706 55.559891
-32.286934 32.990524 -2.9663529 57.074226
-32.123985 33.030994 -2.9609165 52.642509
-31.977282 33.075939 -2.9564395 56.992485
-31.779852 33.079105 -2.9478052 59.396133
-31.582745 33.081337 -2.9391711 56.850098
-31.411047 33.120731 -2.9334147 55.267426
-31.238384 33.146633 -2.9270189 55.216114
-31.076111 33.182697 -2.9215825 56.705078
-30.890116 33.192509 -2.9139078 58.260105
-30.734852 33.234451 -2.9091108 55.072449
-30.602339 33.288765 -2.9059131 58.192307
-30.463947 33.347908 -2.9027152 61.690372
-30.409349 33.498852 -2.9075119 61.269356
-30.167755 33.455009 -2.89504 59.808945
-29.91263 33.38242 -2.8806498 57.97805
-29.747881 33.409153 -2.8748937 57.92923
-29.605621 33.448704 -2.8707364 58.73304
-29.454258 33.489094 -2.8662593 58.694523
-29.302925 33.52887 -2.8617823 59.959469
-29.03055 33.428654 -2.8454733 62.598167
-28.817801 33.395039 -2.8349202 62.50103
-28.696507 33.466461 -2.8333211 62.48632
-28.562105 33.522266 -2.8304431 61.506241
-28.408272 33.554722 -2.8256462 59.641647
-28.363749 33.716354 -2.8317223 58.823627
-28.25449 33.80146 -2.8314025 59.253361
-27.985546 33.694313 -2.8150933 44.661617
-27.800146 33.68586 -2.8070986 35.846424
-25.545504 31.153481 -2.589963 35.326294
-27.307369 33.51564 -2.7786374 34.464684
-23.832558 29.440409 -2.4355054 32.728672
-23.614836 29.359627 -2.4227138 31.612593
-23.093693 28.907656 -2.3792226 21.171732
-22.832117 28.765135 -2.3616345 22.768623
-22.694107 28.766171 -2.3561978 23.759228
-22.511265 28.719522 -2.3466043 18.216528
-22.365736 28.719246 -2.3408482 17.148302
-22.220419 28.718348 -2.3350921 17.056248
-22.078384 28.720768 -2.3296556 17.930107
-21.925472 28.718483 -2.3235795 20.103968
-21.752682 28.668146 -2.3143058 20.362265
-21.590414 28.640726 -2.3066308 20.664227
-21.443478 28.632544 -2.300555 21.501087
-21.28788 28.611704 -2.2935195 20.408485
-21.115763 28.577816 -2.2852049 23.976995
-20.9491 28.53944 -2.2768908 22.597567
-20.844641 28.584951 -2.2752917 23.141462
-20.695293 28.557802 -2.2682562 24.901003
-20.579237 28.586233 -2.2653782 26.10088
-20.442869 28.585817 -2.2602615 26.163351
-20.298052 28.572618 -2.2541857 25.820253
-20.22258 28.656622 -2.2557845 25.672838
-20.095203 28.666908 -2.2516274 25.756348
-20.005047 28.729895 -2.2516274 26.137922
-19.903982 28.787872 -2.2509878 26.121719
-19.779545 28.800905 -2.2471504 25.644739
-19.672094 28.838167 -2.2452316 26.566565
-19.494604 28.771793 -2.2353182 26.113523
-19.379045 28.795641 -2.2324402 25.845924
-19.216379 28.748529 -2.2241256 26.425285
-19.070236 28.713991 -2.2170904 25.271408
-18.94696 28.723778 -2.2132528 25.748341
-18.810123 28.712219 -2.2078164 25.610695
-18.679005 28.708439 -2.2030196 24.559315
-18.56164 28.725071 -2.1998217 25.029802
-18.398516 28.669878 -2.1911876 24.632452
-18.23057 28.605518 -2.1819136 24.960651
-18.129927 28.645792 -2.1806345 25.119091
-18.031881 28.689932 -2.1796751 25.095037
-17.904669 28.687181 -2.1751981 24.982944
-17.811819 28.739052 -2.1748784 25.362156
-17.642969 28.667393 -2.1652846 25.119272
-17.485144 28.612 -2.1569703 25.502956
-17.4133 28.696644 -2.1592088 25.359308
-17.312763 28.73411 -2.1579297 25.527636
-17.207026 28.762674 -2.1560109 25.277668
-17.091095 28.773687 -2.152813 25.599308
-16.962521 28.751226 -2.1473765 25.256853
-16.814096 28.705355 -2.1400216 25.069115
-16.661108 28.650209 -2.1320269 25.267031
-16.53607 28.64192 -2.1275496 25.77545
-16.411264 28.633125 -2.1230726 24.836685
-16.299006 28.645519 -2.1201947 24.183195
-16.191755 28.66617 -2.1179562 23.940723
-16.065006 28.651615 -2.1131592 24.585443
-15.943351 28.645277 -2.1090021 24.677946
-15.838804 28.669014 -2.1070833 25.239861
-15.712849 28.641527 -2.1016469 25.520517
-15.615636 28.677601 -2.1006875 25.931051
-15.511232 28.70018 -2.0987689 25.444715
-15.413905 28.735582 -2.0978096 25.207649
-15.311831 28.761841 -2.0962105 25.165964
-15.200401 28.770102 -2.0933323 25.734396
-15.089087 28.777945 -2.0904543 25.440245
-14.994003 28.816353 -2.0898149 25.423365
-14.901101 28.858885 -2.0894952 25.201353
-14.805818 28.896671 -2.0888553 24.768343
-14.692332 28.898571 -2.0856576 24.891869
-14.592485 28.926765 -2.0843782 24.858767
-14.490373 28.950157 -2.0827796 24.016863
-14.459288 29.116192 -2.0914137 25.041157
-14.34569 29.116716 -2.0882158 24.95816
-14.137973 28.924067 -2.0712671 24.118946
-14.020891 28.914471 -2.0674295 24.22072
-13.908352 28.913412 -2.0642319 25.180099
-13.791643 28.902931 -2.0603943 24.042463
-13.698647 28.941607 -2.0600746 24.64542
-13.612719 28.982122 -2.0600746 24.034378
-13.534241 29.051882 -2.0619934 24.487661
-13.438722 29.085196 -2.0613537 24.678585
-13.336877 29.104597 -2.0597548 24.226513
-13.222664 29.096384 -2.0562372 24.136972
-13.106584 29.083195 -2.0523996 24.039507
-13.006997 29.106009 -2.0511205 24.007071
-12.919543 29.155849 -2.0517602 24.430458
-12.819841 29.178024 -2.0504808 23.792587
-12.703093 29.174629 -2.0472832 23.51795
-12.603467 29.196068 -2.0460038 24.078236
-12.472395 29.143782 -2.0396082 24.324406
-12.370266 29.143915 -2.0370498 25.802143
-12.244519 29.115793 -2.032253 27.151867
-12.147233 29.140299 -2.0312936 28.20911
-12.06135 29.192148 -2.032253 27.415478
-11.971464 29.234514 -2.0325727 27.693682
-11.887076 29.29047 -2.0338519 28.571751
-11.809894 29.364708 -2.0364103 28.649576
-11.72683 29.424835 -2.0380092 27.318552
-11.639839 29.475451 -2.0389686 27.882593
-11.477709 29.319372 -2.0258572 26.710533
-11.381938 29.34598 -2.0252178 26.948956
-11.31654 29.451456 -2.0300145 27.087206
-11.216861 29.468208 -2.0287354 27.050297
-11.094292 29.423935 -2.023299 27.154879
-10.989564 29.425926 -2.0210605 26.07724
-10.87802 29.408831 -2.0175428 25.043032
-10.76496 29.386642 -2.0137053 24.940184
-10.682808 29.448458 -2.015624 25.450138
-10.613874 29.547609 -2.0201011 28.155582
-10.544409 29.646624 -2.0245781 28.873993
-10.447908 29.670189 -2.0239384 28.854271
-10.361225 29.72171 -2.0252178 27.210596
-10.248248 29.697519 -2.0213802 26.583048
-10.140382 29.687073 -2.0185022 26.005928
-10.02947 29.666792 -2.0149844 25.668173
-9.9488983 29.736006 -2.0175428 26.728621
-9.8695602 29.809742 -2.020421 27.607492
-9.8069391 29.935432 -2.0268166 26.994989
-9.6928415 29.90439 -2.0226595 27.67367
-9.5842304 29.87126 -2.0185022 26.501282
-9.4601374 29.806107 -2.0121064 25.589005
-9.3335571 29.730947 -2.0050709 24.709698
-9.2356586 29.745831 -2.0041118 26.345604
-9.149497 29.798546 -2.0057106 27.174921
-9.0572796 29.831921 -2.0060306 28.305285
-8.9850531 29.931908 -2.0108273 28.1614
-8.9478016 30.151318 -2.0236187 28.550081
-8.9036226 30.351641 -2.0351312 28.044098
-8.7553959 30.197359 -2.0229793 29.124958
-8.6040869 30.028063 -2.0098679 28.422398
-8.4770679 29.939726 -2.002193 28.188456
-8.3695211 29.918158 -1.9989951 27.804667
-8.2741508 29.939497 -1.9986753 26.445789
-8.1840029 29.979782 -1.9996347 24.788549
-8.0819702 29.97644 -1.997716 21.595982
-7.9851928 29.992039 -1.9970763 14.463895
-7.9277558 30.156916 -2.0063503 17.606133
-0.19967498 0.83524311 -0.063000396 2.8211796
-0.19233285 0.81647259 -0.061721243 3.326339
-0.18860304 0.81222069 -0.061401453 4.1420312
-0.18719895 0.81766498 -0.061721243 6.0036368
-0.18462943 0.81824899 -0.061721243 6.4776073
-0.17758715 0.79937339 -0.060442094 7.5804548
-0.17300488 0.79016471 -0.059802517 7.5620456
-0.16181393 0.75174755 -0.057244215 8.1897745
-0.15945123 0.75225222 -0.057244215 8.2495537
-0.15602946 0.74787307 -0.056924429 8.2732325
-0.15263678 0.74347991 -0.056604639 7.2086492
-0.15132731 0.74883866 -0.056924429 5.7085299
-0.14593667 0.73465222 -0.055965066 5.0742607
-0.14350171 0.73513198 -0.055965066 4.0875988
-0.13923076 0.7257942 -0.055325489 4.6943035
-5.9688807 30.315098 -1.9881223 9.6177292
-5.8755059 30.343498 -1.9887619 18.714128
-5.7891784 30.380405 -1.9900411 22.119484
-5.6900487 30.378822 -1.9887619 23.433346
-5.5927658 30.386736 -1.9881223 25.405329
-5.502614 30.433615 -1.9900411 25.700735
-5.4078417 30.455666 -1.9903609 23.889494
-5.3112855 30.467588 -1.9900411 23.465887
-5.2200251 30.478292 -1.9897212 24.748997
-5.1225829 30.484701 -1.9890816 23.856369
-5.0276055 30.505568 -1.9894015 24.077726
-4.9333301 30.531065 -1.9900411 23.671728
-4.8397393 30.561195 -1.9910004 23.696363
-4.7452426 30.586109 -1.99164 23.303953
-4.6528735 30.625532 -1.9932389 23.753904
-4.5551739 30.630127 -1.9925994 23.947521
-4.4603543 30.654163 -1.9932389 23.753904
-4.3654432 30.677904 -1.9938785 23.360531
-4.279376 30.765598 -1.9986753 23.281334
-4.2055712 30.946993 -2.0095482 24.607365
-4.1037321 30.925428 -2.0073097 23.907793
-3.9962795 30.858995 -2.002193 23.369915
-3.8918061 30.811993 -1.9983555 23.678043
-3.7942562 30.773882 -1.9951577 23.596312
-3.6951659 30.765835 -1.9938785 23.360531
-3.5973389 30.76738 -1.9932389 23.344355
-3.5029135 30.798361 -1.994518 23.376709
-3.4072449 30.819132 -1.9951577 23.392899
-3.3120139 30.844566 -1.996117 24.92104
-3.2187145 30.889559 -1.9983555 25.212732
-3.1271899 30.954126 -2.0018733 25.545202
-3.0284598 30.948902 -2.0009139 25.282486
-2.9331074 30.978134 -2.002193 23.984913
-2.8289425 30.912661 -1.9973962 23.860994
-2.7309246 30.911455 -1.9967566 24.270296
-2.6329422 30.909939 -1.996117 23.620811
-2.5370555 30.932976 -1.9970763 24.278687
-2.4410498 30.955717 -1.9980358 25.204021
-2.347192 31.008013 -2.0009139 25.759516
-2.2533767 31.064999 -2.0041118 26.094694
-2.1540318 31.047037 -2.0025127 25.803995
-2.0561759 31.048672 -2.002193 25.554018
-1.9634008 31.044678 -2.0015535 25.536388
-1.8658674 31.050692 -2.0015535 25.536388
-1.7685854 31.061382 -2.0018733 26.031778
-1.6707315 31.061802 -2.0015535 25.299942
-1.5711193 31.027029 -1.9989951 25.23016
-1.4722025 31.001907 -1.9970763 25.413204
-1.3754719 31.021336 -1.9980358 25.204021
-1.2782063 31.030489 -1.9983555 24.981421
-1.1807209 31.034351 -1.9983555 24.75432
-1.0823488 31.012974 -1.9967566 24.711573
-0.98554194 31.036171 -1.9980358 24.745768
-0.88818377 31.0441 -1.9983555 24.981421
-0.79115474 31.06669 -1.9996347 24.788549
-0.694906 31.128883 -2.0034721 25.119764
-0.59769434 31.160847 -2.0053909 24.942926
-0.50092173 31.232418 -2.0098679 25.063387
-0.40339553 31.278742 -2.0127459 25.845898
-0.31087983 31.309738 -2.0146646 25.899179
-0.21255678 31.31555 -2.0149844 25.201481
-0.11391288 31.246206 -2.0105076 26.027065
-0.015698848 31.186535 -2.00667 26.936317
0.082258351 31.181438 -2.0063503 26.665609
0.17986384 31.116161 -2.002193 26.546408
0.27660969 31.000681 -1.9948378 25.59091
0.37310556 30.92482 -1.9900411 26.456638
0.46996605 30.903538 -1.9887619 27.498314
0.56642479 30.866985 -1.9865234 27.154484
0.66370434 30.88002 -1.9874827 26.910955
0.75737822 30.962717 -1.9929192 28.197992
0.85491413 30.97016 -1.9935588 27.641668
0.95114762 30.932409 -1.9913203 27.02322
1.0463139 30.869423 -1.9874827 27.182785
1.1475593 30.835869 -1.9855641 26.589043
1.2448219 30.842083 -1.9862037 26.873598
1.3408375 30.818079 -1.9849244 26.570566
1.4348193 30.868793 -1.9884422 25.656191
1.5347544 30.923937 -1.9922795 26.010893
1.6373787 31.023603 -1.9989951 26.714287
1.7351207 31.023289 -1.9993149 25.007328
1.8223025 30.843344 -1.9881223 24.260944
1.9198173 30.847427 -1.9887619 24.27779
2.0170512 30.846222 -1.9890816 24.286215
2.1122255 30.814844 -1.9874827 24.244104
2.2104552 30.827965 -1.9887619 24.498499
2.3080301 30.83082 -1.9894015 24.740416
2.4091423 30.878139 -1.9929192 24.83493
2.5007451 30.870855 -1.9929192 25.064884
2.5981278 30.867819 -1.9932389 24.395901
2.6920657 30.824707 -1.9910004 23.490307
2.7920265 30.850885 -1.9932389 23.753904
2.8954437 30.911512 -1.997716 24.295477
2.9987745 30.966831 -2.0018733 25.076483
3.1054547 31.051594 -2.0079491 25.011717
3.2050445 31.061539 -2.0092282 23.957191
3.3015518 31.041393 -2.0085888 23.940716
3.4120803 31.149912 -2.0162637 25.467596
3.515497 31.188623 -2.0194614 24.650393
3.6168966 31.207167 -2.0213802 25.607523
3.7119825 31.170876 -2.0197814 24.879007
3.8062711 31.129341 -2.0178626 24.608219
3.8947389 31.042963 -2.0130658 24.700541
3.9903309 31.015728 -2.0121064 24.031414
4.0838361 30.973358 -2.0101876 23.981918
4.1790571 30.98583 -2.0117867 24.448351
4.2763901 30.972548 -2.0117867 24.448351
4.3666954 30.90955 -2.0085888 24.364447
4.462348 30.885803 -2.0079491 23.924252
4.5673594 30.925932 -2.0114667 24.439949
4.66822 30.9361 -2.0130658 24.267199
4.7881665 31.069233 -2.0226595 24.095179
4.8950381 31.113188 -2.0264969 23.98736
4.9943328 31.107512 -2.0271366 24.421194
5.086391 31.057199 -2.0248981 24.576618
5.1773758 31.00169 -2.0223396 24.509518
5.2881365 31.063976 -2.0274563 24.643824
5.4032536 31.180901 -2.0360904 24.871437
5.4691195 30.981956 -2.0242584 24.34627
5.5558367 30.905689 -2.020421 24.459267
5.6493216 30.868446 -2.0191417 24.425802
5.7380638 30.806395 -2.0162637 24.56609
5.8412929 30.822538 -2.0185022 24.409075
5.9560318 30.897129 -2.0245781 24.568222
6.0779953 31.005583 -2.0328927 26.408571
6.1480999 30.849308 -2.0239384 26.157608
6.2390561 30.800497 -2.0220199 25.62505
6.3327503 30.766085 -2.0210605 25.137524
6.422997 30.742273 -2.0207407 25.128927
6.509192 30.673132 -2.0175428 24.819433
6.6097317 30.672041 -2.018822 25.077368
6.7145767 30.690125 -2.0213802 25.146126
6.8250041 30.732206 -2.0255375 25.032578
6.9313927 30.754423 -2.0284157 25.10957
7.039084 30.781139 -2.0316133 24.972315
7.1492801 30.817202 -2.0354509 24.854534
7.2654676 30.877167 -2.0408874 25.674057
7.3670583 30.873606 -2.0421665 24.814678
7.4687123 30.869707 -2.0434456 25.288128
7.5763535 30.889706 -2.0463238 24.709305
7.6793671 30.889965 -2.0479226 24.751129
7.7836757 30.894722 -2.0498414 25.236481
7.879457 30.865284 -2.0495217 24.792992
7.9788899 30.850039 -2.0501611 25.695814
8.0896759 30.877914 -2.0536788 26.260328
8.2004232 30.926126 -2.0584757 25.467293
8.3052921 30.929129 -2.0603943 26.446709
8.4233465 30.979931 -2.065511 26.833168
8.5406046 31.004745 -2.0690286 26.687475
8.6325712 30.979265 -2.0690286 25.751074
8.735261 30.971205 -2.070308 25.785595
8.8407221 30.972401 -2.0722265 25.837427
8.962883 31.030769 -2.0779827 25.326801
9.0645294 31.016825 -2.0789421 24.718359
9.1477957 30.94034 -2.0757442 25.053543
9.2152777 30.831785 -2.070308 25.341017
9.3063145 30.783577 -2.0690286 25.307089
9.417552 30.80191 -2.0722265 24.75182
9.5304861 30.82461 -2.0757442 25.707113
9.6535025 30.859509 -2.0802212 25.827503
9.7714348 30.895645 -2.0846982 26.643257
9.8973122 30.955099 -2.0907743 25.234842
10.02211 31.009325 -2.0965304 25.600983
10.14968 31.088551 -2.1038854 25.579563
10.259808 31.094419 -2.1064439 25.647148
10.36531 31.085711 -2.1080427 25.057734
10.470887 31.076633 -2.1096416 25.09902
10.594175 31.119169 -2.1147583 25.439947
10.714604 31.151793 -2.1192353 25.770058
10.836965 31.188686 -2.1240323 25.896961
10.951404 31.201572 -2.1272299 26.422129
11.094374 31.293997 -2.1358643 26.431787
11.199366 31.277779 -2.1371434 26.245659
11.287392 31.214287 -2.1352248 25.977982
11.387102 31.183359 -2.1355443 26.202986
11.507435 31.208303 -2.1397018 25.882641
11.613905 31.211435 -2.1422601 27.058952
11.715419 31.184132 -2.1428995 26.847055
11.848695 31.24049 -2.1492953 27.021618
11.961042 31.240396 -2.1518536 25.990349
12.080697 31.258524 -2.1556911 26.522547
12.211473 31.304094 -2.1614473 27.125227
12.32621 31.30736 -2.1643252 27.434425
12.420815 31.259211 -2.1636858 26.302288
12.526377 31.238565 -2.1649649 26.33614
12.637544 31.23144 -2.1672034 26.611792
12.775199 31.288597 -2.173919 26.148621
12.88104 31.266762 -2.1751981 25.974333
12.996426 31.267612 -2.1780763 26.684561
13.131233 31.314068 -2.1841521 26.630411
13.245085 31.309431 -2.1867106 26.484804
13.36688 31.322737 -2.1905479 27.465017
13.498752 31.358507 -2.1959844 26.517935
13.603644 31.345785 -2.1979032 25.170097
13.748047 31.408035 -2.2052581 25.939081
13.858731 31.392084 -2.2071769 26.39436
13.973523 31.384859 -2.2097354 25.855104
14.149696 31.513788 -2.2218871 26.166052
14.312401 31.610104 -2.2318006 26.830925
14.477921 31.710247 -2.2420337 27.099995
14.633783 31.787001 -2.250668 26.506313
14.752481 31.781601 -2.253546 26.381971
14.888204 31.811928 -2.2589824 27.128408
15.018679 31.844353 -2.2644191 27.693922
15.122938 31.806021 -2.2650585 27.081198
15.268055 31.852856 -2.2717741 27.676117
15.430991 31.935028 -2.2810478 28.139854
15.570567 31.967142 -2.286804 27.652086
15.714862 32.007668 -2.2931998 27.20303
15.868449 32.065475 -2.3008747 27.606806
16.034836 32.133228 -2.309509 27.224152
16.160351 32.131741 -2.3130267 28.785639
16.253357 32.079201 -2.3127067 28.340925
16.347246 32.014652 -2.3117473 27.281841
16.470575 32.007504 -2.3149452 27.565582
16.596317 32.004326 -2.3184628 28.07
16.719875 31.996264 -2.321661 28.366379
16.849581 32.012753 -2.3264577 27.866074
16.99213 32.039017 -2.3322139 25.745354
17.222015 32.227539 -2.3498023 29.123468
17.361021 32.243568 -2.3549187 28.202091
17.469362 32.202034 -2.3558784 24.970232
17.646992 32.287121 -2.3661115 28.088993
17.789236 32.305836 -2.3715477 24.701571
17.963243 32.380695 -2.3811412 23.733999
18.106262 32.398151 -2.3865778 22.262543
18.269129 32.449825 -2.3945725 21.024422
18.420193 32.479088 -2.4009683 20.715929
18.566673 32.499054 -2.4067245 21.710941
18.725916 32.540039 -2.4140797 20.964338
18.875591 32.563072 -2.4201555 21.519175
19.050732 32.628593 -2.4294293 20.832108
19.19043 32.645058 -2.4348657 22.754679
19.369131 32.713436 -2.4444594 20.303205
19.535692 32.759567 -2.4524541 22.624317
19.666775 32.745087 -2.4559717 20.513189
19.818598 32.764271 -2.4620478 19.151323
19.944782 32.740204 -2.4649258 19.549488
20.102316 32.766712 -2.4716413 18.976286
20.244495 32.767075 -2.476438 22.630245
20.392145 32.775337 -2.4818745 24.255163
20.508249 32.732262 -2.4834735 24.28941
20.648239 32.726761 -2.4879506 23.347754
20.78841 32.720695 -2.4924276 23.949461
20.904211 32.688301 -2.4946661 21.227764
21.058126 32.702179 -2.5007422 22.647814
21.196018 32.690308 -2.5048993 23.697634
21.317713 32.652802 -2.5071378 21.460976
21.464043 32.652386 -2.5122545 21.15033
21.585783 32.613926 -2.514493 22.022686
21.737942 32.620693 -2.5202491 21.298092
21.943129 32.705582 -2.5320811 20.735352
22.135134 32.768806 -2.5423143 21.306845
22.372507 32.909325 -2.5583038 20.111881
22.565941 32.970661 -2.568537 21.013227
22.711863 32.961246 -2.5733337 35.236549
22.818138 32.893841 -2.5736537 33.415607
22.924232 32.826077 -2.5739734 33.417248
23.067406 32.798851 -2.5778108 32.322319
23.236629 32.819901 -2.585166 34.67004
23.304869 32.697979 -2.5813284 35.933025
23.398869 32.624638 -2.5810087 36.609219
23.512938 32.567142 -2.5822878 31.301102
23.635674 32.521366 -2.5845263 32.355545
23.731829 32.4389 -2.5838869 31.82201
23.857283 32.396339 -2.5864451 31.834461
23.961903 32.325241 -2.5867648 33.482708
24.075281 32.265793 -2.5880439 30.831379
24.182529 32.197975 -2.5886836 30.352604
24.289574 32.12981 -2.5893233 30.35557
24.390387 32.053349 -2.5893233 29.435699
24.51219 32.004303 -2.5915616 28.579718
24.610096 31.935381 -2.5918815 29.90024
24.731716 31.885502 -2.59412 27.382824
24.862457 31.846987 -2.5973179 27.396194
24.974709 31.784424 -2.598597 60.325878
25.114662 31.756695 -2.6027541 59.899799
25.242277 31.712772 -2.6056323 59.926086
25.379217 31.680042 -2.6094697 59.503414
25.522453 31.654552 -2.6139469 59.543995
25.650059 31.609093 -2.6168249 59.570084
25.796579 31.586325 -2.6216218 59.61356
25.933689 31.551394 -2.6254592 60.10717
26.083572 31.531282 -2.6305759 60.153904
26.246319 31.525904 -2.6369715 59.300011
26.396505 31.50449 -2.6420882 60.259052
26.559679 31.4977 -2.6484838 60.317463
26.706915 31.471186 -2.6532807 60.361282
26.863979 31.455427 -2.6590369 59.952671
27.180517 31.624464 -2.6804626 61.079376
27.499392 31.804142 -2.702528 27.44944
27.61228 31.732643 -2.7038071 61.294247
27.724976 31.660765 -2.7050865 59.912701
27.913357 31.674601 -2.7137206 59.53931
28.131889 31.721169 -2.7252328 59.642086
28.271278 31.677305 -2.7290704 60.128448
28.417336 31.640303 -2.7335474 60.168713
28.540007 31.576792 -2.735786 59.736298
28.665916 31.516516 -2.7383444 59.759136
28.83215 31.499931 -2.74474 59.816235
28.954636 31.434883 -2.7469785 59.389683
29.087173 31.380356 -2.7501764 58.977882
29.219635 31.325319 -2.7533741 59.006004
29.326103 31.253044 -2.7546535 51.072609
29.443277 31.170143 -2.7559326 104.85327
14.544334 15.296304 -1.3606988 29.998949
14.613012 15.272172 -1.3626176 26.240425
14.6548 15.225151 -1.3622978 18.677912
14.712969 15.189795 -1.3632572 19.593903
14.823285 15.207835 -1.3690133 17.778482
14.923388 15.214636 -1.3738102 17.647036
15.027184 15.224509 -1.3789268 16.826618
15.05736 15.159522 -1.3773278 19.371704
29.422672 29.260445 -2.6673515 35.743961
29.486057 29.139809 -2.664793 61.411217
29.661369 29.139618 -2.6727877 59.622181
29.759901 29.053267 -2.6734273 57.035408
29.886833 28.994387 -2.6766253 54.685303
30.020882 28.941906 -2.6804626 48.04414
30.108051 28.844006 -2.6801431 43.771446
30.259954 28.807764 -2.6855793 37.194881
30.411913 28.770866 -2.6910157 32.88237
30.567574 28.736717 -2.6967719 27.811989
30.723333 28.70186 -2.702528 24.704496
30.824314 28.615389 -2.7034874 24.105421
30.9104 28.515017 -2.7031674 24.104261
30.95936 28.380697 -2.69965 24.693819
31.026243 28.263121 -2.6977313 24.381924
31.113672 28.17428 -2.698051 24.383095
31.209442 28.083076 -2.6986904 23.514532
31.312399 27.998188 -2.6999698 24.092686
31.34424 27.849977 -2.6951728 25.638655
31.349308 27.678696 -2.6881378 24.346769
31.447367 27.589935 -2.6890969 22.934566
31.481234 27.445099 -2.6846199 21.659822
31.582378 27.359138 -2.6858993 22.923532
31.645479 27.240255 -2.6839802 23.462553
31.757448 27.163401 -2.6862187 22.661133
31.835033 27.057028 -2.6855793 22.149761
31.854189 26.910925 -2.6804626 21.410975
31.846861 26.733717 -2.6727877 22.1071
31.804251 26.528051 -2.6622348 25.847359
31.82214 26.373857 -2.6567984 30.196695
31.546671 25.978701 -2.627058 43.421284
31.647432 25.895273 -2.6286571 48.860806
31.78282 25.839806 -2.6331341 39.913498
31.914289 25.780603 -2.6372914 32.081886
32.045712 25.720814 -2.6414485 26.109724
32.154243 25.633064 -2.6433673 23.887791
32.230698 25.528831 -2.6430476 22.775625
32.200455 25.349743 -2.6344132 22.484375
32.244572 25.220774 -2.6315351 21.725405
32.252731 25.064234 -2.6257789 21.467888
32.24049 24.892628 -2.6184239 22.690636
32.187893 24.690983 -2.6078708 23.473036
32.245457 24.574619 -2.606272 22.388361
32.223068 24.397869 -2.5982771 22.621098
32.056561 24.104927 -2.5784504 23.944803
32.095974 23.985794 -2.5758922 24.541386
32.002918 23.759899 -2.5624611 20.904427
32.06134 23.647398 -2.561182 22.487835
32.147552 23.555399 -2.5621412 26.598351
32.261662 23.492233 -2.565659 26.085615
21.626923 15.642025 -1.7185413 9.3087788
32.493717 23.350222 -2.5723743 33.409065
32.542545 23.230633 -2.5704558 31.244455
32.521763 23.061874 -2.5631006 16.497023
32.553261 22.930855 -2.5599027 15.784969
32.555656 22.779823 -2.5544665 14.533221
32.446781 22.552124 -2.5403957 17.404051
32.197227 22.228895 -2.5154524 21.209364
32.143467 22.042946 -2.5058587 29.334829
32.22905 21.9531 -2.5071378 28.614634
32.256542 21.823767 -2.5039399 30.077145
32.358059 21.744616 -2.5064983 29.351238
32.405842 21.637413 -2.505219 26.526201
32.415455 21.496874 -2.5007422 24.660952
32.424492 21.356504 -2.4962652 25.122601
32.407913 21.199896 -2.4898691 28.926294
32.40741 21.05448 -2.4847527 30.39603
32.439861 20.930908 -2.4821944 27.994619
32.425648 20.777721 -2.4761183 31.026979
32.411392 20.633181 -2.4703622 27.010571
32.450745 20.515261 -2.4684434 44.477757
25.280895 15.869969 -1.920967 24.280771
32.47316 20.244947 -2.4604487 35.698307
32.557819 20.155958 -2.4620478 31.31312
32.523216 19.993464 -2.4546926 20.891563
32.551796 19.870392 -2.4521341 15.186275
32.614063 19.768021 -2.4521341 15.186275
27.913857 16.798424 -2.0958908 22.035881
27.962214 16.708078 -2.0955708 21.868956
28.036018 16.632889 -2.0971699 24.183331
28.058039 16.527002 -2.0949314 23.379208
28.066759 16.413568 -2.0917337 23.856638
28.066404 16.295244 -2.0878961 24.145029
28.095852 16.194521 -2.0862973 23.912098
28.129265 16.096264 -2.0850182 24.669737
28.140646 15.98563 -2.0821397 24.800894
28.103815 15.848102 -2.0757442 24.843012
28.040268 15.696347 -2.0674295 25.048779
28.098171 15.613021 -2.0680695 25.281664
28.212608 15.560835 -2.072866 24.768385
28.362009 15.527263 -2.0802212 24.345596
28.578913 15.536009 -2.0926929 23.325027
28.768084 15.522 -2.102926 22.5256
28.856297 15.452746 -2.1058042 22.101444
28.856228 15.336267 -2.1022866 21.103809
29.001354 15.296758 -2.1093218 21.864794
29.195143 15.281953 -2.1198747 20.358118
29.411255 15.2776 -2.1320269 20.612572
29.565544 15.240006 -2.1397018 18.358612
29.750965 15.217532 -2.149615 18.122625
29.927654 15.189498 -2.1588891 19.164249
30.126741 15.171728 -2.1697619 17.690142
30.25905 15.119403 -2.1758378 16.708473
30.427094 15.084134 -2.1844721 17.570337
30.595215 15.047944 -2.1931062 16.658634
30.769753 15.020606 -2.2023802 15.860842
30.964981 14.995652 -2.2129331 16.026939
31.155848 14.967471 -2.2231662 17.875292
31.313414 14.915598 -2.2308412 17.642582
31.486433 14.876851 -2.2397952 16.149488
31.674992 14.851175 -2.2500284 16.310896
31.816502 14.795785 -2.2567439 13.852111
31.890011 14.708308 -2.2586627 13.256434
31.958742 14.618437 -2.2602615 13.276923
32.004513 14.517955 -2.2602615 13.478086
32.06361 14.423487 -2.2612209 15.620665
32.090546 14.314544 -2.2599421 16.168715
32.094288 14.19549 -2.2570639 17.388416
32.157001 14.102619 -2.258343 16.752954
32.251484 14.023411 -2.2618606 17.133224
32.336609 13.939811 -2.2647386 13.536423
32.453659 13.869533 -2.2698553 13.603272
32.575165 13.800618 -2.2752917 14.556732
32.638969 13.713578 -2.2768908 12.554204
32.700317 13.61864 -2.2781699 13.116115
32.756775 13.521562 -2.2791293 14.378482
32.789856 13.414796 -2.2784896 13.927527
32.85033 13.319226 -2.2797687 13.136222
32.896641 13.217827 -2.2800884 28.114019
32.942646 13.116251 -2.2804084 12.596594
32.9744 13.009036 -2.2797687 13.136222
33.010464 12.903552 -2.2794487 28.316307
33.10667 12.821424 -2.2832863 28.420507
33.193367 12.735241 -2.2864842 28.068928
33.228554 12.629116 -2.2861645 27.846159
33.268063 12.52467 -2.2861645 27.846159
33.358673 12.439269 -2.2896821 28.372995
33.425663 12.344808 -2.2916009 28.206299
33.492397 12.250016 -2.2935195 28.257904
33.502571 12.134528 -2.2916009 28.64702
33.552517 12.040133 -2.2925601 28.232094
33.637192 11.951369 -2.295758 27.889122
33.68869 11.850613 -2.2967174 28.34404
33.702194 11.736516 -2.2951186 28.300959
33.668144 11.606165 -2.2903218 28.171921
33.742218 11.51324 -2.2928801 28.025124
33.81131 11.418366 -2.2951186 28.300959
33.865948 11.31841 -2.2963977 28.555077
33.939228 11.224507 -2.2989559 28.404423
34.002781 11.127135 -2.3008747 28.676834
34.080288 11.034104 -2.3037527 28.979908
34.157551 10.940696 -2.3066308 28.612009
34.191757 10.833325 -2.3066308 28.178493
34.233269 10.73482 -2.3072705 28.410795
34.252529 10.622774 -2.3063111 28.603338
34.290501 10.516585 -2.3066308 13.674855
34.366341 10.421852 -2.309509 15.803848
34.465824 10.3339 -2.3139858 14.630957
34.478985 10.219903 -2.3127067 15.851701
34.568382 10.128369 -2.3165443 15.909239
34.619202 10.025282 -2.3178234 16.487333
34.645725 9.9151058 -2.3175037 16.776691
34.68631 9.8089218 -2.3181434 16.20796
34.702534 9.695879 -2.3171837 19.167582
34.679924 9.5721884 -2.3136663 21.769732
34.738705 9.471077 -2.3155849 22.87307
34.806828 9.3722878 -2.3181434 19.584614
34.86021 9.2692976 -2.3197422 19.614145
34.87468 9.1559381 -2.3187828 18.812567
34.797016 9.0187635 -2.3117473 17.969286
34.726948 8.8907166 -2.3053517 18.954363
34.720844 8.7730188 -2.3031132 17.822969
34.757915 8.6663027 -2.3037527 19.319933
34.784969 8.5570717 -2.3037527 19.319933
34.850475 8.45716 -2.3063111 20.208876
34.901134 8.3534508 -2.3079102 22.167074
34.941772 8.2472124 -2.3088694 22.187214
34.991806 8.1430473 -2.3104682 22.220797
35.051258 8.0408993 -2.3127067 26.72143
35.076347 7.9307327 -2.3127067 25.979177
35.105961 7.8215933 -2.3130267 25.987034
35.148506 7.7216878 -2.3143058 25.315247
35.192101 7.6154423 -2.3155849 26.049889
35.22073 7.5058913 -2.3159049 24.686287
35.289375 7.3982863 -2.3187828 27.665545
35.330719 7.2975745 -2.3200619 27.496729
35.364498 7.1823683 -2.3207014 27.715599
35.336731 7.0676055 -2.3175037 27.836885
35.290218 6.9430671 -2.3130267 27.719503
35.277565 6.8255315 -2.3107882 15.559264
35.264523 6.708127 -2.3085496 23.289526
31.930668 5.9694886 -2.0898149 18.292418
30.992306 5.6931567 -2.0274563 22.656418
30.769434 5.5523047 -2.0117867 21.9259
30.487028 5.4024501 -1.9922795 20.808714
30.066349 5.2304378 -1.9638186 19.867283
29.679321 5.0670228 -1.937596 20.060488
18.588299 3.111125 -1.2158351 10.391563
18.740763 3.0762002 -1.2251089 10.758305
18.937527 3.0474977 -1.2372608 8.3696375
29.789936 4.7014537 -1.9407938 21.667238
29.824282 4.6109018 -1.9420729 19.847755
29.947155 4.533628 -1.9491081 21.325296
29.793438 4.4146295 -1.9382355 21.978371
29.742964 4.3116951 -1.9340782 21.877125
29.761303 4.2189264 -1.9343979 20.980564
30.006702 4.1576471 -1.9494281 21.157969
30.285908 4.1048298 -1.9666966 19.780226
30.475317 4.04391 -1.978209 20.182432
31.390589 4.0485287 -2.0364103 21.817753
31.560881 3.9753485 -2.0466435 22.400387
32.652847 4.0089355 -2.1163571 23.00963
33.348984 3.9882143 -2.1604879 20.671696
33.614113 3.9129014 -2.1767969 19.511932
33.794811 3.8264019 -2.18767 16.24394
34.953033 3.8403895 -2.2615407 17.127937
35.466038 3.7841246 -2.2938395 17.666569
35.799713 3.712374 -2.3146257 18.738941
35.910488 3.6098926 -2.3210213 18.48263
36.035877 3.5082049 -2.3283765 18.610888
36.170914 3.4066854 -2.3363712 18.39027
36.275848 3.30165 -2.342447 16.58172
36.425217 3.1999092 -2.3514011 17.013971
35.471806 -0.39189675 -2.4926665 11.134686
35.500412 -0.49756446 -2.4947629 12.253972
35.488594 -0.61511058 -2.4940641 12.244752
35.471527 -0.72629255 -2.493016 11.551434
35.449123 -0.83725345 -2.4916184 11.977653
35.451469 -0.94256401 -2.4919679 11.126299
35.433372 -1.0534892 -2.4909194 11.315791
35.424908 -1.1646376 -2.4905703 11.109534
35.391163 -1.2748464 -2.4884737 11.711835
35.382004 -1.3858297 -2.4881244 11.080231
35.37249 -1.4967679 -2.4877751 11.277432
35.357647 -1.6074336 -2.487076 11.268915
35.277695 -1.7148739 -2.4818354 12.325687
35.212677 -1.8164593 -2.4776423 12.520149
35.40601 -1.9379678 -2.4916184 14.155406
35.449543 -2.0520692 -2.4951124 13.024744
35.477768 -2.1655519 -2.4975581 13.626863
35.450882 -2.2757206 -2.4961605 13.039451
35.423649 -2.3857419 -2.4947629 12.754135
35.415981 -2.4970143 -2.4947629 12.253972
35.473083 -2.6068358 -2.4993052 13.362005
35.51445 -2.722074 -2.5027993 13.41223
35.535557 -2.8360114 -2.5048954 12.63587
35.52647 -2.9476357 -2.5048954 12.388107
35.497158 -3.0575194 -2.5034978 12.874441
35.497314 -3.1699088 -2.5041969 12.62641
35.497112 -3.2823265 -2.5048954 11.487154
35.48225 -3.3871624 -2.5045462 10.704355
35.471436 -3.4986165 -2.5045462 11.91617
35.465233 -3.6105406 -2.5048954 13.162363
35.443794 -3.7208989 -2.5041969 14.34819
35.441845 -3.8333027 -2.5048954 13.442413
35.419716 -3.9435239 -2.5041969 11.91171
35.441841 -4.0587473 -2.5066426 11.7218
35.404873 -4.1609793 -2.5048954 11.699881
35.436192 -4.277564 -2.5080402 12.937246
35.422581 -4.3888688 -2.5080402 14.087223
35.41851 -4.5013876 -2.508739 14.753466
35.433868 -4.6165004 -2.5108352 12.467113
35.424137 -4.7284555 -2.5111847 12.231927
35.418995 -4.8410716 -2.5118837 10.974751
35.433247 -4.9564633 -2.5139799 10.999343
35.427376 -5.0691652 -2.5146787 10.29738
35.441792 -5.178586 -2.5167754 11.225724
35.445084 -5.2928495 -2.518173 11.65127
35.457863 -5.4086881 -2.5202692 10.358895
35.465336 -5.5238919 -2.522016 10.213423
35.482288 -5.6407623 -2.524462 11.729452
35.498859 -5.7577934 -2.5269079 9.950717
35.500278 -5.8725424 -2.5283053 10.281836
35.486572 -5.984868 -2.5286548 11.368341
35.49324 -6.0943542 -2.5304019 11.193033
35.503395 -6.2109847 -2.5324981 11.027759
35.478798 -6.3216162 -2.5321488 10.00611
35.463669 -6.4339347 -2.5324981 10.843962
35.467808 -6.5498433 -2.5342453 11.435801
35.466667 -6.6649194 -2.5356429 11.255241
35.455349 -6.7781811 -2.5363417 11.461153
35.448566 -6.892386 -2.5373898 11.47384
35.462215 -7.0042973 -2.5398357 12.142561
35.440033 -7.1156726 -2.5398357 12.371666
35.432167 -7.2299662 -2.5408838 11.934962
35.433697 -7.3463058 -2.5426309 12.408149
35.434849 -7.4627261 -2.544378 12.918467
35.445374 -7.5813093 -2.5468237 11.795321
35.447094 -7.6917338 -2.5485706 12.031833
35.442238 -7.8073468 -2.5499682 10.041243
35.466209 -7.9295335 -2.5534623 10.393025
35.494633 -8.0530519 -2.5573056 9.4061127
35.527489 -8.1779442 -2.5614984 20.961403
35.535622 -8.2974539 -2.5639443 21.014931
35.514233 -8.4102011 -2.5642939 20.859617
35.523071 -8.5236835 -2.5667396 20.912815
35.509151 -8.644969 -2.5677876 21.099195
35.517242 -8.7586498 -2.5702336 10.102884
35.552456 -8.8859053 -2.5747757 11.149048
35.534039 -9.0000019 -2.5754745 9.72264
35.500755 -9.1103506 -2.5751252 9.8599758
35.481613 -9.2243433 -2.5758238 10.474327
35.40905 -9.3243389 -2.5726793 10.771661
35.374763 -9.434248 -2.5723298 10.767754
35.349766 -9.5466347 -2.5726793 9.5579529
35.309975 -9.6550083 -2.5719805 9.8278599
35.295597 -9.7637224 -2.5730288 10.6072
35.293568 -9.8826275 -2.5751252 11.531158
35.28154 -9.9988966 -2.5765228 12.166509
35.230778 -10.104188 -2.5751252 10.799022
35.24197 -10.227326 -2.5782695 9.4799747
35.26231 -10.353446 -2.582113 21.085442
35.253517 -10.471274 -2.5838602 20.962276
35.239555 -10.587713 -2.5852578 20.8335
35.250938 -10.705268 -2.5884023 20.901154
35.298187 -10.840849 -2.594342 21.189802
35.316357 -10.967957 -2.5981853 21.437208
35.305519 -11.086324 -2.5999324 10.264091
35.318058 -11.212274 -2.6034265 11.482944
35.273159 -11.320126 -2.6027279 11.863711
35.261143 -11.438578 -2.6044745 11.49526
35.239258 -11.553959 -2.6055231 12.762961
35.259598 -11.683432 -2.6097157 13.301408
35.236908 -11.798892 -2.6107638 13.571701
35.249001 -11.919369 -2.6142581 12.425355
35.239697 -12.039721 -2.6163545 12.451886
35.262993 -12.171523 -2.6208966 12.293798
35.219872 -12.280602 -2.6205471 12.289438
35.195232 -12.396159 -2.6215954 12.518353
35.151413 -12.504995 -2.6212459 13.209134
35.140118 -12.625483 -2.6233423 12.540549
35.142483 -12.751125 -2.626487 11.755604
35.135036 -12.873473 -2.6289327 12.611727
35.115395 -12.984586 -2.6303306 13.843936
35.088448 -13.100072 -2.6313787 13.858603
35.084461 -13.224313 -2.6341739 13.139699
35.070709 -13.34511 -2.6362703 14.484248
35.098457 -13.482046 -2.6415112 13.736657
35.079178 -13.601258 -2.6432581 15.194205
35.036278 -13.711395 -2.6432581 16.207155
34.993027 -13.821397 -2.6432581 16.960972
34.949436 -13.93126 -2.6432581 15.854824
34.917202 -14.038618 -2.6439571 14.035266
34.905281 -14.16137 -2.6464028 12.835568
34.874466 -14.276627 -2.6474509 12.627536
34.857101 -14.397541 -2.6495473 13.344313
34.848534 -14.522323 -2.6523426 11.682438
34.839523 -14.647194 -2.6551378 10.250736
34.825478 -14.770205 -2.6575837 22.591074
34.811005 -14.89327 -2.6600294 22.474688
34.828159 -15.030225 -2.664921 11.123669
34.799065 -15.147528 -2.6663187 10.816263
34.751305 -15.256774 -2.6663187 10.365586
34.728687 -15.36991 -2.6680655 23.003653
34.698448 -15.487069 -2.6694632 22.515995
34.66782 -15.604189 -2.6708608 22.547241
34.645878 -15.725391 -2.6729572 22.425541
34.655266 -15.861138 -2.6774995 22.867922
34.623383 -15.978292 -2.6788971 22.899538
34.586578 -16.093298 -2.6799452 23.098257
34.549397 -16.208229 -2.6809933 23.122181
34.493797 -16.314554 -2.680644 22.59672
34.481262 -16.433996 -2.6834393 22.002357
34.451942 -16.55304 -2.6851864 20.010254
34.43568 -16.678583 -2.6879814 20.06542
34.396561 -16.793249 -2.6890297 19.571098
34.361534 -16.910032 -2.6904271 18.19816
34.366329 -17.046711 -2.6949694 18.725374
34.348301 -17.172434 -2.6977649 19.739677
34.33427 -17.300453 -2.7009091 20.870855
34.300575 -17.411282 -2.7023067 20.349426
34.309254 -17.55901 -2.7075479 19.431185
34.261436 -17.663015 -2.7078972 19.936205
34.236759 -17.786659 -2.7103429 19.008986
34.202808 -17.905695 -2.71209 18.587992
34.186096 -18.034 -2.7152348 18.211353
34.085224 -18.117901 -2.7117405 18.149536
34.080902 -18.253149 -2.7159336 19.112692
34.019001 -18.357759 -2.715584 19.106199
33.978687 -18.474072 -2.7169816 19.610474
33.96423 -18.604687 -2.7204757 21.863447
33.979855 -18.752262 -2.7264156 19.307966
33.928421 -18.855425 -2.7267647 18.416138
33.917934 -18.997074 -2.7309577 15.59038
33.923248 -19.140297 -2.7361987 19.978466
33.887989 -19.253187 -2.7379456 22.870958
33.857639 -19.376894 -2.7403915 20.57357
33.809566 -19.490639 -2.7414398 18.678568
33.791302 -19.621801 -2.7449338 20.14695
33.785461 -19.760595 -2.749476 23.460716
33.727516 -19.869171 -2.7498252 22.490713
33.70702 -19.992054 -2.7529697 20.823208
33.661179 -20.108078 -2.7543674 20.329773
33.610661 -20.221441 -2.7554157 20.350145
33.551235 -20.329517 -2.7557652 17.701683
33.534039 -20.463398 -2.7596085 18.574297
33.52483 -20.602594 -2.7641506 16.41625
33.476902 -20.718313 -2.7655482 13.473842
33.458218 -20.852398 -2.7693918 12.131048
33.455349 -20.988688 -2.7742832 14.539414
33.448284 -21.130978 -2.7791748 18.099817
33.411194 -21.254692 -2.7816207 18.544842
33.369457 -21.375694 -2.7837172 19.908827
33.344055 -21.507458 -2.7872112 22.673765
33.284687 -21.617537 -2.78791 24.690638
33.229134 -21.730185 -2.7889581 25.083897
33.189869 -21.85367 -2.791404 25.141682
33.162621 -21.985388 -2.794898 24.49321
33.109692 -22.091991 -2.7959461 22.25914
33.064964 -22.212587 -2.7980425 21.731077
33.023937 -22.335913 -2.8004882 21.780937
32.994835 -22.467621 -2.8039823 19.819504
32.969341 -22.602188 -2.8078258 37.789642
32.963856 -22.75098 -2.8134162 44.49707
32.933182 -22.882885 -2.8169103 44.851021
32.91835 -23.026258 -2.8218017 44.555065
32.894791 -23.164019 -2.8259947 45.249493
32.854404 -23.281702 -2.8284404 44.600975
32.821705 -23.413767 -2.8319345 45.977417
32.792553 -23.548765 -2.8357778 46.355984
32.787128 -23.70134 -2.8417175 46.047123
32.777039 -23.851183 -2.8473082 45.740444
32.7784 -24.010033 -2.8539464 44.450527
32.746971 -24.145449 -2.85779 45.472668
32.719017 -24.283876 -2.8619828 44.505707
32.702507 -24.43132 -2.867224 44.869198
32.705322 -24.593887 -2.8742118 44.917526
32.679939 -24.726931 -2.8784049 44.946526
32.665585 -24.877827 -2.8839951 44.333225
32.638733 -25.019772 -2.8885374 45.016598
32.599461 -25.152653 -2.8920314 43.753864
32.58725 -25.306946 -2.8979712 42.57729
32.578323 -25.464483 -2.9042604 44.795956
32.553047 -25.609879 -2.9091518 45.833183
32.55455 -25.777039 -2.9164894 45.5448
32.567032 -25.953787 -2.924875 46.639664
32.586498 -26.137104 -2.9339592 46.007313
32.601254 -26.317667 -2.9426942 46.068626
32.59272 -26.470879 -2.9489834 46.459476
32.57119 -26.623648 -2.9545741 46.499016
32.560574 -26.786045 -2.9612124 46.198601
32.556946 -26.955 -2.9685502 46.250111
32.529583 -27.105034 -2.9737909 46.634914
32.509247 -27.26158 -2.9797308 46.676918
32.545422 -27.466511 -2.9909117 46.755989
32.554016 -27.649336 -2.9996467 47.532536
32.57695 -27.845449 -3.0097795 47.605289
32.550915 -27.990763 -3.0150201 47.64291
32.57597 -28.190798 -3.0255022 47.718174
32.617702 -28.416611 -3.0380807 47.089565
32.754562 -28.707216 -3.0586953 46.535561
32.802624 -28.932047 -3.0716231 47.326775
32.849594 -29.157461 -3.0845511 47.777428
32.891754 -29.380129 -3.0971296 48.232452
32.925415 -29.596678 -3.109009 47.951698
32.867054 -29.721003 -3.1118042 47.971619
32.917393 -29.955029 -3.1254308 48.808235
32.862015 -30.104445 -3.1296234 48.838566
32.750542 -30.181538 -3.1275272 47.722118
32.794537 -30.413157 -3.1408043 47.459179
32.853931 -30.671494 -3.156178 47.567089
32.884647 -30.894079 -3.168407 47.299934
32.897972 -31.090862 -3.1785395 46.34074
32.912182 -31.300615 -3.1893711 47.097134
32.925396 -31.510757 -3.2002025 47.521461
32.980724 -31.762814 -3.2152269 45.925179
33.016888 -31.998167 -3.2285039 41.294964
33.173306 -32.352459 -3.2536607 42.537342
33.099987 -32.484467 -3.2564561 42.554646
33.015514 -32.605812 -3.2582028 44.930206
32.877537 -32.674217 -3.254709 44.907383
32.887585 -32.890205 -3.2658896 46.265556
32.864964 -33.074734 -3.273926 45.032909
32.743366 -33.160072 -3.2721789 39.531067
32.754318 -33.380257 -3.2837093 36.897373
32.756134 -33.580833 -3.2938418 37.810863
32.706024 -33.740871 -3.2994323 37.841434
32.686375 -33.933254 -3.3081672 35.418171
32.683079 -34.143867 -3.3186493 37.946518
32.627224 -34.300583 -3.3238904 38.879353
32.615242 -34.504402 -3.3336735 36.338524
32.598885 -34.704849 -3.3431072 39.937847
32.496502 -34.814384 -3.3438063 39.94186
32.441246 -34.974808 -3.3493965 38.114658
32.371143 -35.107578 -3.3528907 39.993954
32.314602 -35.267941 -3.3584809 40.02602
32.254021 -35.424606 -3.3637221 37.32497
32.176033 -35.562744 -3.3672159 36.513794
32.140858 -35.748959 -3.3752522 35.761093
32.07159 -35.898109 -3.3797944 34.293293
32.041443 -36.091934 -3.3885293 36.625164
32.000496 -36.2747 -3.3962162 35.868256
31.975151 -36.476318 -3.4056499 38.422272
31.912821 -36.636768 -3.4112406 35.945057
31.892231 -36.84621 -3.4213731 40.386711
31.867392 -37.052097 -3.4311564 38.561752
31.822124 -37.235443 -3.4388433 39.522926
31.782476 -37.426476 -3.4472287 36.931889
