# .PCD v0.7 - Point Cloud Data file format
VERSION 0.7
FIELDS x y z intensity
SIZE 4 4 4 4
TYPE F F F F
COUNT 1 1 1 1
WIDTH 1115
HEIGHT 1
VIEWPOINT 0 0 0 1 0 0 0
POINTS 1115
DATA ascii
-6.7605438 32.478622 0.18167371 14.111367
-6.6651397 32.503437 0.18170275 20.402496
-6.5739059 32.578121 0.18202241 21.558092
-6.4715209 32.598614 0.18202241 22.349213
-6.3853173 32.67165 0.18234207 23.963217
-6.2930417 32.74556 0.18266173 24.281668
-6.1882896 32.755341 0.18260361 23.795694
-6.1011372 32.827625 0.18292324 23.875435
-5.9988661 32.851551 0.18295231 23.653051
-5.8894353 32.835789 0.1827489 23.602766
-5.8044925 32.957531 0.18335915 23.984444
-5.7135115 33.014019 0.18359163 23.143906
-5.6030679 32.992371 0.18335915 24.703976
-5.52982 33.192287 0.18443435 24.254606
-5.3988709 33.046665 0.18347539 24.013561
-5.2784114 32.959789 0.18286514 23.406435
-5.1759348 32.945671 0.18269078 23.363762
-5.0686064 32.937057 0.18254548 23.552542
-4.9807615 33.056644 0.18315573 23.477661
-4.872499 33.042454 0.18298139 23.213827
-4.7558317 32.928104 0.18222582 23.030849
-4.6397648 32.853767 0.18170275 25.556812
-4.5194197 32.744362 0.18097626 24.585684
-4.4131775 32.733627 0.18083099 24.300077
-4.3212566 32.786232 0.18106344 22.538429
-4.2252669 32.854191 0.18138309 22.40506
-4.0902557 32.6143 0.17990108 22.473345
-3.9953005 32.641178 0.17998825 22.926682
-3.8915403 32.643639 0.17993012 22.270163
-3.7883818 32.650742 0.17990108 23.127909
-3.6919725 32.717133 0.18022072 22.764269
-3.594095 32.773296 0.18048225 22.611946
-3.4979033 32.793755 0.18054037 22.841316
-3.3881485 32.739933 0.18016259 23.651274
-3.2732656 32.631023 0.17946517 22.582777
-3.1746218 32.680954 0.17969766 22.856207
-3.0818706 32.735027 0.17995918 23.142145
-2.9867399 32.829197 0.1804532 24.203335
-2.8822649 32.823475 0.18036601 23.018492
-2.7727823 32.757637 0.17993012 23.135023
-2.6637774 32.691441 0.17949425 23.254147
-2.5628316 32.649353 0.17920363 22.736702
-2.4500895 32.522629 0.17841902 22.332943
-2.3557396 32.559677 0.17859338 23.032536
-2.2610452 32.676651 0.17923269 23.189672
-2.1613739 32.728493 0.17949425 24.967609
-2.0588489 32.740112 0.17952329 23.72654
-1.9565912 32.756401 0.17958142 24.225687
-1.8642125 32.846924 0.18007542 22.51487
-1.7677343 32.977436 0.18080191 22.063942
-1.6653951 33.007793 0.18094721 22.302401
-1.5664259 33.112747 0.1815284 23.080471
-1.4650608 33.177448 0.18187712 23.165241
-1.3670148 33.191639 0.18193524 23.402264
-1.262931 33.200764 0.18196429 24.104736
-1.1616092 33.289513 0.18245831 23.992432
-1.0571716 33.297997 0.18248737 24.237364
-0.95328772 33.326141 0.18263265 23.349546
-0.85516417 33.358814 0.18280703 22.954966
-0.7520681 33.436314 0.1832429 23.059818
-0.64703143 33.438511 0.1832429 22.636703
-0.54606003 33.3353 0.18263265 23.129267
-0.44046441 33.271858 0.1822549 22.611246
-0.33546284 33.228081 0.18199335 23.193535
-0.23097123 33.21397 0.18190616 23.17231
-0.12677608 33.249535 0.18210958 22.369673
-0.028155738 33.294765 0.18237114 22.227211
0.076457448 33.304688 0.18242924 23.299837
0.18114859 33.314281 0.18248737 22.053816
0.28604862 33.343548 0.18266173 22.920078
0.38554454 33.392548 0.18295231 22.161419
0.49183398 33.48616 0.18350445 22.289616
0.5986113 33.574436 0.18402752 22.211369
0.70377976 33.557392 0.18394035 22.391134
0.80345589 33.560154 0.18396939 22.197929
0.90794092 33.522476 0.18376598 22.55368
1.0122093 33.484474 0.18356256 22.71236
1.1165637 33.456146 0.18341728 22.677958
1.2205805 33.422489 0.1832429 22.228832
1.3185616 33.388748 0.18306856 21.795656
1.4245024 33.40942 0.18321386 22.222092
1.5292358 33.399784 0.1831848 22.016991
1.6343899 33.399811 0.18321386 22.02368
1.7342701 33.40979 0.18330103 21.657011
1.838941 33.399185 0.18327197 22.437725
1.9435587 33.388252 0.1832429 21.455658
2.0453644 33.427254 0.18350445 21.146559
2.1513264 33.435631 0.18359163 22.110699
2.2610466 33.49855 0.18399847 21.25573
2.3702569 33.631344 0.18481213 21.436291
2.4769931 33.638691 0.1848993 22.41353
2.5830514 33.635731 0.18492837 22.221882
2.6910868 33.657352 0.18510272 22.066811
2.7980444 33.663685 0.18518992 22.481169
2.8956463 33.560078 0.18463777 21.960617
2.9956498 33.55632 0.18466684 22.161642
3.1015236 33.55172 0.18469588 22.567759
3.2073827 33.546787 0.18472496 21.980503
3.3122599 33.53157 0.18469588 21.973871
3.4112403 33.516624 0.18466684 21.967245
3.5144291 33.485851 0.1845506 22.53373
3.6180105 33.459732 0.18446343 22.513327
3.7280684 33.492924 0.18472496 21.789368
3.8359282 33.556229 0.18516085 21.699419
3.945416 33.578773 0.18536426 21.745192
4.0532694 33.586071 0.18548051 21.585291
4.1614962 33.643364 0.18588734 21.492596
4.2778454 33.714451 0.18638134 21.420935
4.4011221 33.834721 0.18716596 21.4147
4.5060821 33.810814 0.18710783 22.528322
4.5969353 33.727936 0.186701 22.23914
4.711163 33.772751 0.18704973 21.937563
4.8235812 33.802334 0.18731125 21.81019
4.9210901 33.727646 0.18696254 22.299084
5.0108552 33.64365 0.1865557 22.400669
5.1127634 33.603031 0.18641041 21.073183
5.2183146 33.5868 0.18641041 21.981508
5.3230124 33.565304 0.18638134 22.360449
5.4345288 33.623405 0.18681724 22.461086
5.5466413 33.645634 0.18704973 22.319086
5.6638975 33.697075 0.18745656 21.659206
5.7992568 33.851601 0.18847364 22.071526
5.8892365 33.739632 0.18792149 22.717236
5.9718604 33.62355 0.18734032 22.385834
6.0748057 33.589859 0.18725315 22.561993
6.1811948 33.575527 0.18728219 22.568726
6.2872348 33.591442 0.18748562 22.22599
6.3964481 33.591175 0.18760183 22.25251
6.5000534 33.561096 0.18754373 23.033506
6.6054015 33.571095 0.18771808 22.27906
6.7196469 33.594307 0.18797962 22.33886
6.8271332 33.582832 0.18803774 21.788658
6.9317913 33.586914 0.18818304 22.385435
7.0485582 33.618801 0.1885027 22.078085
7.1541495 33.596489 0.1885027 22.458742
7.2607093 33.578732 0.18853174 21.899054
7.3747268 33.59483 0.18876423 21.411339
7.4932628 33.630066 0.18911295 22.405931
7.6187153 33.694141 0.18963602 21.780962
7.7275977 33.710377 0.18986851 22.387583
7.8300619 33.671322 0.18978131 21.994951
7.9449735 33.68549 0.1900138 21.864769
8.0600471 33.699272 0.19024627 21.560078
8.1553068 33.655769 0.19013003 21.360985
8.2705431 33.668827 0.19036251 21.240149
8.4040279 33.754276 0.19103087 20.72135
8.5493288 33.908585 0.19210608 21.446196
8.660758 33.90094 0.19222233 22.358557
8.739686 33.767067 0.19158301 21.504065
8.8457308 33.739441 0.19158301 21.333399
8.940671 33.693714 0.19146676 21.478846
9.0412855 33.646145 0.19135053 21.981194
9.1482487 33.622402 0.19137959 21.289627
9.2551641 33.59832 0.19140866 21.295879
9.354825 33.570705 0.19140866 21.466246
9.4629507 33.550777 0.19146676 21.308378
9.5765285 33.549732 0.19164112 20.849491
9.6888037 33.543503 0.19178642 21.548239
9.7995033 33.553005 0.19201891 21.427372
9.9218674 33.57959 0.19236761 22.027182
10.045908 33.610538 0.1927454 21.757214
10.164456 33.621887 0.19300692 21.814415
10.274408 33.604137 0.1930941 21.8335
10.388791 33.600357 0.19326848 21.698122
10.494413 33.58847 0.19338471 21.72341
10.610413 33.588715 0.19358812 22.298626
10.717392 33.559978 0.19361717 21.948229
10.830726 33.570862 0.19387873 22.00573
10.951639 33.584206 0.19416931 22.61241
11.060231 33.559132 0.19422744 22.082531
11.175057 33.552689 0.19440179 21.772625
11.280944 33.538338 0.19451803 22.146646
11.403934 33.554813 0.19483769 22.396482
11.522284 33.556648 0.19507015 22.26878
11.644032 33.567528 0.19536076 23.263775
11.741907 33.528114 0.19533169 22.326771
11.865522 33.542915 0.19565135 22.761963
11.962425 33.48193 0.19550605 22.729145
12.06512 33.455692 0.19556418 22.200788
12.192389 33.478706 0.19594194 21.935965
12.347518 33.576336 0.19678468 23.207542
12.541668 33.776443 0.19826671 22.6217
12.628414 33.685375 0.19794707 22.550753
12.712955 33.589413 0.19759834 22.473505
12.841084 33.626286 0.1980633 22.75572
12.953843 33.604443 0.19817953 23.149166
13.050297 33.540279 0.19803424 24.499157
13.127841 33.445557 0.19768551 23.224272
13.210772 33.348362 0.19733681 23.723246
13.317321 33.311337 0.19736587 23.929453
13.446207 33.329624 0.19774365 23.050161
13.556508 33.301109 0.19783083 22.703756
13.666639 33.28849 0.19800517 22.21382
13.796025 33.305447 0.19838296 22.827274
13.929487 33.331146 0.19881883 22.391928
14.045783 33.331142 0.19908038 22.624741
14.232555 33.480122 0.20030089 23.076258
14.473568 33.752346 0.202306 23.529499
14.61922 33.798492 0.20288718 22.095978
14.689469 33.686214 0.20245129 22.331659
14.857594 33.781799 0.20335214 22.695774
14.91705 33.629818 0.20268376 24.38345
14.996088 33.52346 0.202306 23.716242
15.103719 33.497044 0.20242225 22.663664
15.266794 33.576885 0.20323591 22.501223
15.472175 33.746937 0.20463075 22.975948
15.714803 34.009544 0.20660681 23.770332
15.827898 33.973602 0.20669398 23.79002
15.926063 33.905605 0.20657776 23.406431
16.023939 33.83733 0.20646152 22.697952
16.166761 33.863537 0.20695552 21.109694
16.357609 33.988297 0.20808885 21.337255
16.510109 34.031223 0.20869909 22.686674
16.63076 34.022522 0.20896064 21.513269
16.766287 34.028412 0.20933841 20.482624
16.918287 34.081528 0.21000677 21.153851
17.105795 34.189194 0.21105291 23.528881
17.246868 34.202263 0.21148881 20.376278
17.375431 34.204441 0.21183753 19.943914
17.521534 34.225346 0.21233153 20.536554
17.633543 34.179028 0.21238968 19.11408
17.751024 34.157608 0.21259309 21.669939
17.883745 34.150398 0.21291272 18.770458
18.000267 34.11174 0.21302897 19.685467
18.126125 34.09034 0.21326144 19.727856
18.259089 34.081718 0.2135811 17.681303
18.405241 34.110996 0.21413325 21.417057
18.60541 34.224346 0.21526657 21.100391
18.73444 34.205196 0.21552809 19.228224
18.849056 34.159306 0.21561526 18.815964
18.9746 34.146942 0.21590587 18.063288
19.115976 34.148243 0.21631271 18.524759
19.262438 34.157711 0.21677765 20.87228
19.44371 34.22747 0.21764944 18.352837
19.627092 34.312855 0.21860842 22.897921
19.894493 34.52832 0.22046822 22.121141
20.073128 34.586742 0.22128189 22.283297
20.253834 34.66087 0.22218274 39.055347
20.403185 34.666023 0.2226477 41.318489
20.55788 34.679173 0.22317077 41.353832
20.723093 34.708874 0.22381006 36.222412
20.880983 34.725018 0.22436219 42.653011
21.008091 34.68919 0.22456561 43.303986
21.131733 34.660866 0.2247981 39.222507
21.295454 34.683788 0.22540835 43.042259
21.472651 34.727303 0.22616391 44.074646
21.572966 34.659184 0.22613484 43.414764
21.673773 34.578533 0.22604766 42.150387
21.824978 34.57793 0.2265126 44.778088
21.98177 34.585155 0.22703567 37.346779
22.116613 34.570332 0.2273844 37.36792
22.279257 34.584747 0.22796558 33.152809
22.406229 34.556267 0.22822712 34.746243
22.563879 34.561066 0.2287502 36.514488
22.710794 34.5485 0.22915703 33.216846
22.877148 34.564556 0.22976728 34.0229
23.037811 34.583912 0.23037753 33.282448
23.196442 34.586132 0.2309006 31.862284
23.349751 34.579388 0.23136556 30.55759
23.525728 34.605103 0.232063 28.238728
23.707727 34.638317 0.23281854 28.827463
23.870308 34.641907 0.23337066 28.853067
24.02141 34.640789 0.23386469 27.786322
24.161606 34.610249 0.23418435 24.557177
24.347832 34.644627 0.23496895 26.344393
24.49696 34.625122 0.23537578 28.946045
24.585083 34.531921 0.23523048 30.120504
24.684708 34.442322 0.2351433 28.935265
24.789873 34.360546 0.23511426 29.512598
24.932825 34.343494 0.23552109 28.395996
25.111391 34.361885 0.23621851 28.427711
25.24291 34.315056 0.23645099 25.943699
25.341656 34.223534 0.23636381 23.102888
25.511793 34.24041 0.23703218 24.265007
25.68523 34.248096 0.23767149 22.449656
25.837868 34.227104 0.23810738 22.129976
26.014816 34.237347 0.23877575 22.835215
26.198259 34.267269 0.23956037 21.538322
26.616751 34.589012 0.24252443 25.744041
26.933443 34.774044 0.24450049 46.807114
27.045622 34.693211 0.24452955 26.748148
27.139179 34.601009 0.24444237 28.258303
27.232254 34.49596 0.24429707 24.95577
27.377819 34.457211 0.24464579 46.817856
27.617069 34.535049 0.24586628 46.186386
27.791485 34.542572 0.24653466 24.236099
28.050861 34.641632 0.24792951 27.380671
28.260603 34.677383 0.24885942 29.002611
28.455013 34.692818 0.24964404 28.49041
28.621151 34.672657 0.2501671 27.476883
28.755835 34.62606 0.2504577 21.29459
28.902939 34.581596 0.25080639 46.906681
29.059696 34.548035 0.25124231 46.577583
29.223444 34.534176 0.25179443 46.61776
29.364197 34.480274 0.25208503 47.00045
29.504898 34.425827 0.25237563 21.977556
29.632507 34.355679 0.25255001 47.034542
29.759943 34.28508 0.25272435 47.047329
29.884567 34.222984 0.25292775 47.062241
30.018345 34.158974 0.25316024 21.384609
30.201656 34.150673 0.25382861 24.1252
30.358654 34.111649 0.2542645 46.797497
30.523083 34.092216 0.25481665 47.200752
30.640087 34.00729 0.25490382 21.144869
30.766911 33.933098 0.25507817 47.219933
30.90451 33.882305 0.25539783 46.879963
31.041237 33.818199 0.25565937 46.540989
31.171064 33.746231 0.25586277 46.555679
31.300762 33.673767 0.2560662 46.217564
31.467859 33.64101 0.25658926 45.907257
31.694286 33.682243 0.25766447 45.983738
31.872135 33.658752 0.2582747 45.345261
32.04427 33.640076 0.25888497 46.419563
32.22245 33.615044 0.25949523 46.463299
32.393833 33.582031 0.26004735 46.502869
32.530506 33.512402 0.26030889 45.487797
32.667076 33.442223 0.26057041 45.171524
32.801189 33.380821 0.26086101 45.19173
32.972691 33.345165 0.26141316 45.565174
33.092632 33.268459 0.2615875 45.24226
33.257103 33.224422 0.26208153 45.952396
33.418091 33.176136 0.26254648 46.330971
33.600441 33.148258 0.2631858 45.689381
33.886486 33.221066 0.26466784 45.45652
34.073032 33.19471 0.26533619 45.840061
34.167782 33.089993 0.26530716 45.500988
34.350822 33.058762 0.26594645 45.213005
34.497856 32.992168 0.26629516 45.23708
34.715172 33.003357 0.26725414 45.63641
34.858654 32.931915 0.26757377 44.996925
35.016605 32.873589 0.26800969 45.688961
35.116058 32.759998 0.26798061 45.024815
35.249756 32.689671 0.26827121 46.045727
35.422142 32.643147 0.26882336 45.74556
35.579796 32.58239 0.26925924 45.112457
35.687416 32.486763 0.26934642 44.473866
35.822678 32.404671 0.26960796 44.491543
35.939167 32.305347 0.26972419 39.935352
36.152344 32.292213 0.270596 42.149754
36.442371 32.357479 0.27210706 42.246338
36.566345 32.262672 0.27228141 42.257481
36.765266 32.233341 0.27303699 41.192463
36.930424 32.173531 0.27353099 39.162056
37.10508 32.132565 0.27414122 39.198135
37.255104 32.05825 0.27451903 36.48415
37.538025 32.097034 0.27591386 39.302933
37.758812 32.092373 0.27687284 37.485359
37.897636 32.005863 0.27716345 39.376812
38.032459 31.915588 0.27742499 38.431488
38.232365 31.879221 0.27818054 37.55899
38.336182 31.762131 0.27820957 35.853321
38.50526 31.698736 0.27873266 36.715885
38.755569 31.701101 0.27986598 38.572281
39.15757 31.825212 0.28213263 41.758522
39.337379 31.778028 0.28277192 37.81752
39.557892 31.751318 0.28367278 34.575352
39.805981 31.745361 0.28477705 30.058073
39.997936 31.704777 0.28550354 21.846521
40.164104 31.631571 0.28599754 30.112539
40.468018 31.665491 0.28750867 36.353127
40.677822 31.62413 0.28832233 34.814392
40.911503 31.600103 0.28931034 28.136814
41.149384 31.577982 0.2903274 21.70546
33.729794 25.72402 0.23540485 14.763171
33.798481 25.608877 0.23531768 15.376156
41.901531 31.555206 0.2937274 16.641697
42.040497 31.453358 0.294018 42.498203
33.299652 24.749203 0.22999977 43.045135
33.41745 24.674183 0.23029035 17.431213
42.785088 31.39748 0.29730171 20.033304
34.577526 25.206064 0.23755525 18.517536
34.186855 24.757048 0.23418435 15.190007
34.438961 24.775114 0.23543389 17.369246
34.243896 24.480869 0.23351596 45.638763
34.259491 24.329741 0.23308007 50.284424
34.620361 24.269264 0.23459119 17.552298
34.762058 24.206129 0.23505612 17.993809
34.846165 24.102482 0.23511426 17.360353
34.987637 24.038212 0.23557919 35.160221
35.104233 23.9653 0.23589885 17.180063
35.936569 24.368525 0.24121676 16.374304
35.855358 24.14937 0.24011248 16.345608
35.739895 23.917702 0.2388048 19.277374
35.627495 23.680735 0.23749714 40.034195
35.651649 23.535622 0.23714842 41.123348
35.796566 23.479115 0.23767149 38.991505
35.94136 23.412949 0.2381655 35.305847
36.123882 23.370543 0.23892105 22.494429
36.260212 23.297501 0.23935695 43.377041
36.392391 23.23016 0.23979282 45.05135
36.532749 23.158566 0.24025778 41.32761
36.698399 23.102303 0.2408971 23.639774
36.838631 23.029303 0.24136205 25.261108
36.995743 22.966223 0.24194326 32.429996
37.140327 22.903589 0.24246632 29.860338
37.293098 22.836426 0.24301843 67.923759
27.449881 16.688511 0.17557119 25.845999
27.579218 16.648712 0.17609425 22.873001
27.699989 16.603138 0.17655922 23.945433
27.847935 16.579716 0.17722757 19.788879
38.039253 22.48856 0.24569194 39.490658
38.208874 22.427179 0.24636029 47.689709
38.369858 22.359903 0.24697053 56.742233
38.526897 22.298573 0.2475808 32.023659
38.653122 22.209808 0.24795857 45.984905
38.848637 22.160137 0.24880131 43.710102
39.000713 22.084814 0.24935342 32.11285
39.153233 22.018013 0.24993463 31.472466
39.340073 21.960728 0.25071922 36.891079
39.513828 21.895193 0.25141665 36.051987
39.656887 21.811932 0.25191069 20.204695
39.804195 21.730387 0.25243375 45.611702
40.017941 21.693211 0.25342178 26.188374
40.169544 21.612415 0.2539739 41.08733
40.303402 21.521441 0.25440982 21.426229
40.442165 21.441593 0.25490382 21.144869
40.619934 21.372663 0.25563031 17.931158
40.771088 21.288918 0.25618243 23.112942
58.331867 30.228823 0.3707062 23.950573
57.753979 29.483099 0.36573699 26.243252
58.604534 29.685696 0.37067714 25.298933
58.938736 29.622694 0.37224635 24.656645
59.236633 29.552626 0.37361214 27.320679
34.366596 17.007418 0.21172129 10.890893
59.883389 29.406893 0.37660527 24.797855
60.173237 29.315004 0.37788391 23.247017
34.842033 16.843342 0.21378452 10.539031
60.161861 28.856037 0.37666342 23.820805
60.473431 28.772181 0.37808731 22.671856
60.80769 28.697302 0.37965655 24.232796
61.295536 28.705528 0.38224283 23.682802
61.671093 28.645529 0.38407362 23.434685
61.992363 28.558369 0.38555562 24.418808
62.245483 28.438303 0.38660178 23.511337
62.297718 28.239016 0.38639835 24.445381
62.377003 28.039076 0.38634026 22.915825
62.378025 27.804272 0.38578811 23.189365
62.355309 27.559658 0.38509068 23.465521
62.29504 27.299412 0.38416079 22.851395
62.233627 27.052628 0.38325989 23.714043
62.267803 26.835228 0.38294029 22.815317
62.37014 26.660162 0.38308555 23.404728
61.086353 25.88459 0.37445486 24.068777
61.425507 25.801027 0.37608224 23.802719
62.064754 25.840498 0.37959841 23.912132
62.173355 25.656847 0.37977275 23.917557
62.207386 25.442453 0.37948218 21.631516
62.134331 25.197632 0.37855226 24.524973
62.176064 24.987398 0.37831977 21.598787
62.231037 24.782677 0.37817448 24.512896
62.206638 24.559366 0.37756425 26.26828
62.278839 24.361979 0.37753519 24.165907
62.271145 24.133684 0.3770121 24.149412
62.262642 23.90568 0.37648907 23.506086
62.164532 23.644159 0.37541384 23.473063
62.145515 23.426098 0.37486169 24.407026
62.232872 23.235981 0.37494892 24.409815
62.319614 23.045601 0.37503609 24.087103
62.391712 22.849689 0.37503609 23.461462
62.46394 22.666153 0.37506512 23.77107
62.487778 22.452904 0.37477452 23.453428
62.539173 22.249763 0.37465829 23.149218
62.637905 22.075781 0.37486169 23.155384
62.725842 21.885464 0.37497795 24.08527
62.78957 21.686647 0.37494892 23.458784
62.899963 21.503853 0.37521043 23.466818
62.952999 21.301348 0.37512326 23.163315
63.02066 21.116066 0.37515229 22.870975
63.124657 20.930552 0.37538478 22.040941
63.280369 20.761745 0.37593693 23.187984
63.194279 20.526009 0.37503609 23.160675
63.191807 20.305969 0.37462926 23.148336
63.264809 20.110386 0.37468734 22.29269
63.289524 19.899515 0.37445486 22.285904
63.289673 19.681267 0.37407711 22.553312
63.347786 19.493404 0.37407711 22.553312
62.806019 19.110855 0.37041557 21.897625
63.006069 18.967684 0.37128738 22.470844
62.931175 18.729683 0.37047371 22.169666
62.836227 18.486696 0.36954382 22.703085
62.505112 18.176085 0.36718997 23.220484
62.624374 17.997602 0.36756775 21.045538
63.43594 17.812124 0.37181047 23.362392
63.766201 17.688938 0.37346685 21.720739
63.662327 17.444918 0.37250787 22.506918
63.535248 17.207579 0.37143269 30.47476
63.052361 16.652216 0.36788741 24.184141
62.903145 16.413263 0.36669597 23.824121
62.833351 16.184387 0.36596948 22.885778
62.772434 15.958577 0.3653011 22.018644
62.662224 15.721137 0.36434212 22.836437
62.531738 15.479711 0.36326694 23.403942
62.400349 15.239262 0.36219171 24.002117
62.211983 14.997787 0.36079687 23.957541
62.33662 14.820793 0.36126184 23.652771
62.416939 14.632891 0.36146522 23.659184
62.499058 14.456628 0.3616977 21.913439
62.4613 14.241289 0.3612037 21.899014
62.295971 13.997848 0.35995415 18.640686
62.686226 13.878855 0.36201736 22.196808
61.952808 13.512377 0.3573969 22.339458
61.982857 13.326375 0.35733879 19.827866
60.048306 12.712972 0.34559873 23.15888
59.985153 12.502867 0.34498847 23.139637
59.984955 12.3063 0.34475601 23.132307
59.947689 12.113411 0.34432009 23.118563
59.975647 11.923053 0.34426197 23.11673
59.939209 11.720158 0.34382609 23.415182
59.558384 11.451544 0.34135604 23.655918
59.520378 11.250424 0.34092012 23.641798
59.619328 11.075274 0.34129789 23.023266
59.651932 10.89831 0.34129789 23.334389
59.695717 10.712633 0.34135604 23.025099
59.738922 10.526793 0.34141415 22.428827
59.755116 10.346919 0.34132695 21.585171
59.723248 10.148254 0.34094921 30.82
26.741526 4.4537997 0.14642444 14.671366
26.829401 4.3818831 0.14686033 16.705767
27.094812 4.3379536 0.14834237 16.667841
59.157139 9.1089458 0.33673555 37.303371
59.081646 8.9073725 0.33612528 31.750221
59.035141 8.7107763 0.3356894 28.558016
58.971653 8.5227013 0.33516634 30.039366
33.07655 4.6712675 0.18301044 9.6148958
33.061344 4.56323 0.18283607 10.410712
58.618282 7.9083066 0.33263817 22.450859
58.482864 7.7134194 0.33170825 21.300827
58.362999 7.5111384 0.33086553 25.78898
58.044003 7.2847319 0.3288604 31.432058
58.056679 7.1011415 0.32880229 28.28656
58.09856 6.9210715 0.32891855 22.632917
58.153606 6.752707 0.32912195 19.294882
58.149689 6.5671816 0.32897666 22.046835
57.976204 6.3631539 0.32784334 24.925383
57.831841 6.1634912 0.32688436 22.568777
57.617172 5.9575677 0.32551855 18.982338
57.365955 5.7595916 0.32394937 18.12599
57.368832 5.5779004 0.32386217 17.930965
53.76506 -1.0724798 -0.0041230889 36.517567
53.746429 -1.2410324 -0.0041249739 35.710022
53.652542 -1.3981596 -0.0041362834 36.076744
53.602901 -1.5653955 -0.0041419389 36.88129
53.567738 -1.7328132 -0.0041457084 33.798458
53.562359 -1.8917481 -0.0041457084 58.993671
53.187508 -2.3806095 -0.0041903192 32.339798
53.170219 -2.5379372 -0.004191576 58.794163
52.429466 -3.6412344 -0.004276399 34.928116
52.422756 -3.8062899 -0.0042757704 35.313599
52.320793 -3.9641669 -0.0042870799 33.798229
52.31805 -4.1293039 -0.0042858236 35.679249
52.264957 -4.2903709 -0.0042908499 34.890541
52.386509 -4.4568663 -0.0042738854 36.112228
52.456921 -4.6288838 -0.0042632041 37.401672
52.388184 -4.7795119 -0.0042701159 38.733612
52.377888 -4.9445443 -0.0042694872 38.274296
52.406883 -5.1134377 -0.0042638322 35.344982
52.430359 -5.2820606 -0.0042588059 35.751064
52.547783 -5.4606924 -0.0042418409 36.609707
52.688786 -5.9684749 -0.0042173369 34.704483
52.302258 -6.0911846 -0.0042638322 36.139256
51.658398 -6.1716418 -0.0043430002 37.179699
51.693348 -6.3405943 -0.0043360889 39.988846
51.717819 -6.5085783 -0.0043304344 40.005756
51.776459 -6.6812568 -0.0043203807 33.363178
51.880333 -6.8512101 -0.0043046731 32.066231
44.46582 -6.0146265 -0.0052421242 29.82358
44.501183 -6.1618299 -0.0052352129 29.840115
44.481606 -6.3015995 -0.0052352129 29.840115
44.462711 -6.4335561 -0.0052352129 30.141529
44.44228 -6.5732069 -0.0052352129 29.840115
44.510403 -6.7262321 -0.0052239033 29.86717
44.49025 -6.8582721 -0.0052239033 31.439127
44.517879 -7.0057783 -0.0052176197 37.352753
44.209316 -7.0996346 -0.0052540624 38.198746
44.137451 -7.2304029 -0.0052603455 32.0215
43.757271 -7.4428973 -0.0053030709 43.011272
43.955368 -7.618741 -0.0052747969 30.984808
43.099079 -7.60991 -0.005380983 52.663193
43.159973 -7.7527819 -0.0053703012 84.334106
43.120647 -7.8856373 -0.0053721862 68.63356
43.151382 -8.5781536 -0.0053520799 53.746429
43.168331 -8.7225847 -0.0053464253 77.826469
43.095551 -9.5488129 -0.005333859 44.185265
43.158028 -9.7049875 -0.0053219208 34.456608
43.767662 -9.9785604 -0.005239611 35.093639
43.833527 -10.138541 -0.0052270447 33.177395
43.903687 -10.30017 -0.0052138497 35.166142
51.456661 -12.232899 -0.0042343014 41.863091
51.524918 -12.420265 -0.0042204787 41.368782
51.407932 -12.563087 -0.0042305314 41.874809
51.343941 -12.718517 -0.0042336732 41.328312
51.342529 -12.889489 -0.0042286464 42.431725
51.308907 -13.043006 -0.0042280182 41.88261
51.253147 -13.200391 -0.0042299032 42.427765
51.1824 -13.353765 -0.0042336732 42.981445
51.282745 -13.542587 -0.0042154519 41.921654
51.273758 -13.712671 -0.0042110537 42.487103
51.26421 -13.882832 -0.0042066555 41.948982
51.19141 -14.035884 -0.0042104251 40.364624
51.1567 -14.199306 -0.0042091687 40.879372
51.205811 -14.376706 -0.0041972306 41.440079
51.198868 -14.548435 -0.0041922037 40.419113
51.179504 -14.707184 -0.0041890624 42.556324
51.238674 -14.898603 -0.0041752397 40.469845
51.191616 -15.059502 -0.0041752397 41.50753
51.168015 -15.227382 -0.0041720979 42.056347
51.182167 -15.406781 -0.0041639297 42.081726
51.169712 -15.568765 -0.0041595316 41.029682
51.211353 -15.757377 -0.0041475934 39.563427
51.27618 -15.953828 -0.0041325139 39.607418
51.283043 -16.132837 -0.0041249739 40.620155
51.277832 -16.298559 -0.0041193194 41.151451
51.297783 -16.482512 -0.0041098944 41.707943
51.193439 -16.626598 -0.0041168057 39.653244
51.178959 -16.799816 -0.0041117794 41.174286
51.147873 -16.957891 -0.0041092657 41.709869
51.089603 -17.116903 -0.0041098944 41.179993
51.082935 -17.293352 -0.0041036112 39.691742
51.075665 -17.469923 -0.0040973281 38.764595
51.047237 -17.629555 -0.0040941862 38.773544
51.170998 -17.852415 -0.0040703104 37.502174
51.062786 -17.994808 -0.0040772217 36.640854
51.255665 -18.24399 -0.0040439209 36.73037
51.442772 -18.492863 -0.0040112482 36.818188
51.495785 -18.684637 -0.0039967969 37.704319
51.521336 -18.877281 -0.0039854874 37.735416
51.447708 -19.033844 -0.0039873724 37.301479
51.490704 -19.233864 -0.0039735492 38.207413
51.631199 -19.471386 -0.0039465316 39.194057
51.61993 -19.642277 -0.0039402484 38.300041
50.881172 -19.544409 -0.0040313546 37.609295
51.009445 -19.767553 -0.0040062214 36.422455
51.879944 -20.669298 -0.0038629652 38.51503
52.022526 -20.905165 -0.0038353188 37.29108
52.00293 -21.087282 -0.0038290359 36.893436
52.00584 -21.278946 -0.0038196109 37.333302
51.975708 -21.457485 -0.0038145848 40.046577
51.981895 -21.651419 -0.0038045314 38.233002
52.005013 -21.842344 -0.0037925933 39.166206
52.005192 -22.034868 -0.003783169 39.659309
52.009277 -22.229578 -0.0037731156 38.764961
51.920818 -22.384939 -0.003775629 38.757973
51.909203 -22.562813 -0.0037680888 39.702255
51.902172 -22.753883 -0.0037592924 39.259926
51.889885 -22.943102 -0.0037511245 40.720097
51.885517 -23.125458 -0.0037423281 39.307674
51.862778 -23.310894 -0.0037354166 39.795307
51.848492 -23.50054 -0.0037272486 41.293327
51.856262 -23.70072 -0.0037159389 39.850777
51.845127 -23.892805 -0.0037071423 40.356251
51.837498 -24.076015 -0.0036983455 41.378693
51.811413 -24.26207 -0.0036914344 39.450909
51.829891 -24.469542 -0.0036782394 40.439564
51.869938 -24.676914 -0.0036625313 39.532257
51.828224 -24.85704 -0.0036575051 40.499321
51.839909 -25.063265 -0.0036449386 37.802814
51.846313 -25.267614 -0.0036330009 41.571682
51.833996 -25.463434 -0.0036235759 41.092205
51.776142 -25.62599 -0.0036210625 38.297291
51.865402 -25.873329 -0.0035971866 35.535515
52.478916 -26.788414 -0.0034765492 35.465977
51.754681 -26.82999 -0.003555089 38.476643
51.692295 -27.004021 -0.0035519477 35.649437
52.421707 -27.583319 -0.0034369652 35.197971
52.498245 -27.834524 -0.0034137173 35.622551
52.675152 -28.140663 -0.0033760183 34.634182
52.718571 -28.377094 -0.003357169 59.194714
53.070992 -30.065788 -0.0032157972 34.671131
53.171703 -30.34388 -0.0031875228 35.813168
53.176815 -30.556311 -0.0031736996 34.771839
53.275291 -30.835926 -0.0031454256 34.839481
53.147919 -30.985512 -0.0031498238 34.828957
53.379158 -31.332891 -0.0031026998 36.022362
53.521492 -31.64292 -0.0030675142 35.740681
53.56789 -31.897877 -0.003046151 36.923134
53.583191 -32.135437 -0.0030291867 36.965851
53.653172 -32.407009 -0.0030040538 37.82547
53.719124 -32.664772 -0.0029801778 39.589668
53.744167 -32.911701 -0.002961328 39.199883
53.755417 -33.151237 -0.0029443637 40.136906
53.797005 -33.39761 -0.002923629 39.300091
53.789333 -33.627411 -0.0029091777 38.906212
53.806133 -33.873478 -0.0028909564 38.530697
53.821922 -34.119976 -0.002872735 39.435375
53.731323 -34.299652 -0.0028702221 38.169731
53.839645 -34.594059 -0.0028388062 39.969669
53.835651 -34.830929 -0.0028230983 39.567314
53.880981 -35.100861 -0.0027998497 39.629112
53.872768 -35.323627 -0.0027853989 37.579754
53.874199 -35.567074 -0.0027684339 62.704121
55.005459 -37.807339 -0.0024932311 36.399715
55.016407 -38.05571 -0.0024743814 36.812939
55.081223 -38.356934 -0.0024461071 38.033802
55.062805 -38.601536 -0.0024303992 38.072945
55.050179 -38.836792 -0.0024146913 38.112087
55.050194 -39.096397 -0.0023958415 37.765667
54.955574 -39.289505 -0.0023914427 37.391045
55.038849 -39.610905 -0.0023593989 37.469269
54.995117 -39.842285 -0.0023468328 38.281189
55.0434 -40.141537 -0.0023198144 39.164444
55.137707 -40.461449 -0.0022865138 39.249199
55.187279 -40.765175 -0.0022588684 39.742344
55.347843 -41.153137 -0.0022136294 39.858715
55.445698 -41.481915 -0.0021790718 39.522633
55.486858 -41.785229 -0.0021520536 40.452076
55.458916 -42.037861 -0.0021357175 40.494553
55.537266 -42.372612 -0.0021024169 39.299637
55.558044 -42.64986 -0.0020791693 39.358181
55.526661 -42.903671 -0.0020628325 40.684071
55.659996 -43.286613 -0.0020201073 39.095375
55.681232 -43.584534 -0.001994974 38.358868
55.728436 -43.888756 -0.0019666997 38.824047
55.747017 -44.187843 -0.0019415674 38.886032
55.850262 -44.556084 -0.001902611 40.226219
55.963436 -44.934784 -0.0018617708 40.330162
56.028114 -45.276932 -0.0018284699 39.989487
55.982574 -45.531593 -0.001812762 40.889885
56.009762 -45.830475 -0.0017863727 40.522045
56.05077 -46.158772 -0.0017562137 41.035351
56.055634 -46.459064 -0.0017317083 40.661163
56.159473 -46.826897 -0.0016921249 40.332829
56.215084 -47.173435 -0.0016588242 40.416691
56.314919 -47.559498 -0.0016179829 41.390926
56.344296 -47.888367 -0.0015884518 41.466888
56.364567 -48.211376 -0.0015601777 42.924274
56.372868 -48.50885 -0.0015350453 42.518646
56.326031 -48.777355 -0.0015174524 41.649529
56.360996 -49.118309 -0.0014860365 41.2864
56.301487 -49.361137 -0.0014715845 41.767517
56.333607 -49.703163 -0.0014401686 41.848331
56.323002 -50.009357 -0.0014156642 41.911362
56.288651 -50.29599 -0.0013949305 43.363518
56.301395 -50.626358 -0.0013660274 41.591816
56.264423 -50.913689 -0.0013452928 42.092384
56.272102 -51.225128 -0.0013182756 42.16188
56.265751 -51.543507 -0.0012918863 42.688774
56.199135 -51.808128 -0.0012755494 41.822083
56.146069 -52.086441 -0.0012566997 41.870056
56.192329 -52.440414 -0.0012221429 42.409161
56.16581 -52.746758 -0.0011982665 42.018768
56.097946 -53.015671 -0.0011813017 43.448593
56.112282 -53.363922 -0.0011498857 42.595036
56.027439 -53.61945 -0.0011354346 42.63221
56.027985 -53.95821 -0.0011059036 43.646809
56.012596 -54.283581 -0.0010788854 43.242645
55.904987 -54.501888 -0.001069461 43.742611
55.915524 -54.85582 -0.0010374171 42.884346
55.838989 -55.126053 -0.0010204522 42.927986
55.824188 -55.439465 -0.00099406298 42.090687
55.844269 -55.808952 -0.00095950527 42.177711
55.830841 -56.147202 -0.00093060319 41.379345
55.692833 -56.361446 -0.00092369161 42.717552
55.68716 -56.710938 -0.00089290366 42.345425
55.710754 -57.072693 -0.00085834594 43.816113
55.677399 -57.398163 -0.00083195668 41.622635
55.617912 -57.678288 -0.00081185007 42.106304
55.605953 -58.029613 -0.00078106305 43.080544
55.53371 -58.319893 -0.00076095638 41.797741
55.518616 -58.672016 -0.00073016941 42.309853
55.522408 -59.046482 -0.0006956117 45.222374
55.575603 -59.476337 -0.00065162958 44.841042
55.637093 -59.897415 -0.00060764654 44.468006
55.608044 -60.244576 -0.00057811645 43.597038
55.503002 -60.511089 -0.00056240847 43.177677
55.555145 -60.951214 -0.00051716948 43.752151
55.568783 -61.330681 -0.00048072689 42.488857
55.526382 -61.672165 -0.00045245275 41.281837
55.509064 -62.043797 -0.00041915098 41.361504
55.483311 -62.40844 -0.00038710708 72.698517
41.285187 -49.433136 -0.0027872836 41.995598
41.030693 -49.443321 -0.0028067613 50.928082
40.738377 -49.406097 -0.0028337794 47.446709
40.487896 -49.417812 -0.0028526287 55.531147
40.192688 -49.355511 -0.0028821598 51.404758
39.943081 -49.364925 -0.0029010095 43.733574
39.631145 -49.295334 -0.0029324256 41.103535
39.354382 -49.267239 -0.0029569298 36.760849
39.065002 -49.203667 -0.0029858325 36.688824
38.8452 -49.243717 -0.002999027 36.655945
38.542248 -49.176617 -0.0030291867 45.60722
38.409069 -49.325073 -0.0030247883 50.182968
38.367134 -49.591812 -0.0030015404 45.107304
38.378311 -49.911541 -0.002968868 44.635258
38.318459 -50.159 -0.0029487619 44.137447
38.284634 -50.442421 -0.0029230006 41.129749
38.246399 -50.722134 -0.0028978679 43.2094
38.263653 -51.059448 -0.0028626821 50.022377
38.246387 -51.371906 -0.0028325226 55.606297
38.227531 -51.684757 -0.0028023636 51.681427
38.198208 -51.985905 -0.0027740896 44.108421
38.131981 -52.238922 -0.0027533548 37.26815
38.088039 -52.52441 -0.0027275935 63.998302
37.995079 -54.126247 -0.0025705139 56.585674
37.947826 -54.4217 -0.0025434967 57.586452
37.944653 -54.783154 -0.0025064251 60.613583
24.267569 -99.334412 0.0019690874 50.618122
-0.27019134 -0.40368709 -0.010819708 2.1088295
-0.27693403 -0.41120446 -0.010818451 2.0653627
-0.28500974 -0.36838239 -0.010822221 2.4412134
-0.28006554 -0.35956129 -0.010823478 2.6908877
-0.27812803 -0.3547301 -0.010824106 2.584008
-0.27610838 -0.34995717 -0.010824734 2.9432013
-0.27720645 -0.34908801 -0.010824734 2.9023232
-0.29689518 -0.3717587 -0.010820964 2.7219365
-0.27939433 -0.34733942 -0.010824734 3.1189148
-0.2679902 -0.33084264 -0.010827247 3.3584375
-0.29411089 -0.36115804 -0.010822221 3.0796843
-0.27000302 -0.32920229 -0.010827247 3.4109132
-0.2931554 -0.35547644 -0.010822849 3.2633431
-0.28158414 -0.3390924 -0.010825363 3.3531404
-0.26036176 -0.31121868 -0.010829761 3.7410922
-0.28690496 -0.34116185 -0.010824734 3.6028841
-0.29118335 -0.34409404 -0.010824106 3.626677
-0.28903976 -0.33935538 -0.010824734 3.4827876
-0.27066082 -0.31559974 -0.010828504 4.057786
-0.29111052 -0.33758041 -0.010824734 3.7994046
-0.29542476 -0.3404595 -0.010824106 3.9753964
-0.28342456 -0.32438973 -0.010826619 3.787945
-0.28772116 -0.32727244 -0.010825991 4.1875072
-0.28874791 -0.32636693 -0.010825991 4.2712579
-0.27655825 -0.31044516 -0.010828504 4.6495457
-0.28742239 -0.32085282 -0.010826619 4.4063864
-0.29840553 -0.33114952 -0.010824734 4.7492552
-0.29944435 -0.33021045 -0.010824734 4.5427666
-0.29713139 -0.32555529 -0.010825363 4.6943965
-0.30151322 -0.32832247 -0.010824734 4.8597035
-0.30591235 -0.3310684 -0.010824106 4.807456
-0.31366253 -0.3375195 -0.010822849 4.2151504
-0.30793199 -0.32919043 -0.010824106 4.3066792
-0.31577697 -0.33554208 -0.010822849 5.3244004
-0.34075299 -0.36009577 -0.010818451 5.6525722
-0.36245722 -0.38085657 -0.010814681 4.7775474
-0.34638622 -0.36163616 -0.010817823 4.8951125
-0.34752065 -0.36054614 -0.010817823 4.4289117
-0.36250207 -0.37388054 -0.010815309 3.6441474
-0.37062261 -0.37993211 -0.010814053 3.0172763
-0.35090327 -0.35725483 -0.010817823 2.7763331
-0.36950606 -0.37402171 -0.010814681 2.1557226
-0.37067926 -0.37285903 -0.010814681 1.9861716
-0.38944301 -0.38945341 -0.010811539 1.8281759
-0.39066163 -0.38823131 -0.010811539 3.1734378
-0.42920077 -0.38378292 -0.010808398 1.7608234
-0.45900148 -0.40292501 -0.010803999 3.192579
-0.45269069 -0.39495146 -0.010805257 2.6816237
-0.45016545 -0.39023587 -0.010805884 2.6600876
-0.46648568 -0.4019382 -0.010803372 2.5634785
-0.46774602 -0.40047079 -0.010803372 2.1548078
-0.44623399 -0.37946406 -0.010807142 2.1536355
-0.47025043 -0.39752737 -0.010803372 1.9824234
-0.48668572 -0.40906081 -0.010800858 1.8623991
-0.51091874 -0.42685005 -0.010797088 1.5461336
-0.48924884 -0.40599141 -0.010800858 1.7071993
-1.0286614 -0.23766591 -0.010748079 4.2739258
-1.0927446 -0.24902171 -0.010739911 3.7135482
-1.0788929 -0.24227107 -0.010741796 3.2875538
-1.0893662 -0.24124937 -0.01074054 9.4891567
-1.0859745 -0.23333837 -0.010741168 2.278003
-1.0671451 -0.22573994 -0.010743681 2.1015856
-1.0629565 -0.22135523 -0.010744309 1.8224913
-1.0783339 -0.22106166 -0.010742424 1.68545
-1.1035171 -0.22267841 -0.010739283 1.7263993
-1.1188792 -0.22235632 -0.010737398 1.2003838
-1.1490018 -0.22466201 -0.010733628 2.4862845
-1.1840577 -0.22773544 -0.01072923 1.3363872
-1.1503907 -0.21743812 -0.010733628 1.1751577
-1.1756376 -0.21844314 -0.010730486 2.1597481
-1.1763175 -0.21475321 -0.010730486 2.4864326
-1.2585621 0.32862851 -0.010717291 2.0954499
-1.2671974 0.33511427 -0.010716035 2.1665831
-0.74494642 0.27980435 -0.010780752 1.4034479
-0.73938459 0.28038177 -0.01078138 1.50906
-0.733872 0.28080672 -0.010782009 1.785406
-0.7469964 0.28846946 -0.010780124 1.931337
-0.77407324 0.30161926 -0.010776354 2.030941
-0.7591455 0.29860348 -0.010778239 2.245775
-0.76285851 0.30281311 -0.01077761 2.2303505
-0.75265974 0.30139127 -0.010778867 2.5844951
-0.74706739 0.30189592 -0.010779495 3.1915843
-0.73684347 0.30049521 -0.010780752 3.3345084
-0.71274561 0.29337084 -0.010783893 3.4843984
-0.72569269 0.30131495 -0.010782009 3.3576293
-0.72474253 0.30359316 -0.010782009 3.1244605
-0.7376231 0.31165805 -0.010780124 2.7521558
-0.72287452 0.30801457 -0.010782009 2.2496114
-0.71730304 0.30832493 -0.010782637 1.8574251
-0.70714295 0.30662948 -0.010783893 1.4933134
-0.69700074 0.30487311 -0.01078515 1.9782807
-80.956139 40.932285 0.00051892811 43.605659
-79.379272 40.448662 0.0003147246 43.117142
-75.715515 39.166309 -0.00016845249 45.61005
-73.861069 38.797321 -0.00039653241 47.063194
-73.429497 38.865421 -0.00044051453 45.396046
-72.53054 38.681847 -0.00055109826 45.606503
-71.895676 38.617699 -0.00062524033 44.910416
-70.084404 38.21423 -0.00084954954 45.831669
-69.31543 38.077919 -0.00094254041 46.638847
-68.670471 38.004986 -0.0010179394 43.878059
-67.734093 37.765224 -0.0011354346 46.102268
-67.172668 37.713928 -0.0012001514 45.922245
-66.448898 37.582645 -0.0012874877 47.330357
-65.861305 37.523899 -0.0013553462 46.573647
-65.187996 37.41209 -0.0014357709 46.902962
-64.60482 37.332672 -0.0015042573 47.275146
-64.050751 37.281422 -0.0015677181 47.671364
-63.381191 37.158794 -0.0016481428 47.433838
-62.695827 37.022148 -0.0017310804 46.051804
-61.977547 36.861145 -0.0018190455 45.253052
-61.492569 36.834698 -0.00187308 41.62999
-59.98222 36.444118 -0.0020609475 62.389767
-1.1951491 0.74957347 -0.010703469 2.506083
-1.188556 0.75066233 -0.010704097 2.6883767
-1.1481786 0.73030972 -0.010709752 2.8834751
-1.1544386 0.73908925 -0.010708495 2.4761515
-1.1479011 0.74001443 -0.010709124 2.9082718
-1.1264666 0.73630232 -0.010711637 2.066906
-1.1116048 0.73161173 -0.010713521 2.0499909
-1.1052529 0.73215711 -0.01071415 2.070226
-1.1196078 0.74669039 -0.010711637 2.0209749
-1.1338817 0.7613216 -0.010709124 1.3799453
-1.1522225 0.77884185 -0.010705982 0.99891365
-52.77758 35.776546 -0.0028683369 43.83007
-52.227142 35.643425 -0.0029349388 47.124039
-51.877987 35.631222 -0.0029720094 47.640999
-51.457329 35.580772 -0.0030191333 48.807793
-51.099068 35.570873 -0.0030568324 48.682533
-50.671776 35.510281 -0.0031052132 53.747196
-50.045166 35.306141 -0.0031843814 49.63755
-49.756721 35.324226 -0.0032126554 48.164787
-49.442101 35.335018 -0.0032440715 51.647007
-49.030479 35.274117 -0.0032905668 45.989689
-48.708843 35.275471 -0.0033232397 46.505539
-48.343231 35.242771 -0.0033628235 49.027714
-47.946053 35.184467 -0.0034074341 51.063709
-47.724812 35.240429 -0.0034256554 54.236656
-47.196495 35.080017 -0.0034910007 57.648758
-47.038017 35.192165 -0.0034985407 52.299576
-46.711544 35.177349 -0.0035324695 51.384178
-46.331982 35.107437 -0.0035758235 53.666424
-46.060272 35.142612 -0.003600328 54.437466
-45.834625 35.198841 -0.0036185493 51.857895
-45.575684 35.215454 -0.0036430536 55.162312
-45.354305 35.272522 -0.0036606465 51.702957
-45.093651 35.297726 -0.0036845228 58.859299
-44.890518 35.354023 -0.0037002307 50.018253
-44.704773 35.435883 -0.0037121687 50.732826
-44.499432 35.501297 -0.0037272486 40.789753
-44.25901 35.537636 -0.0037479827 51.381519
-43.944912 35.513092 -0.0037806556 53.741665
-43.705128 35.546856 -0.0038013901 51.984722
-43.50658 35.600403 -0.0038164696 48.16544
-43.30962 35.666965 -0.0038302927 46.112614
-43.070305 35.697578 -0.003851027 48.752178
-42.769794 35.675785 -0.0038818149 45.941433
-42.580925 35.74567 -0.003894381 42.919178
-42.409729 35.81702 -0.0039050623 46.510162
-42.285572 35.940353 -0.0039069476 55.029503
-42.134449 36.040531 -0.0039132307 50.00404
-42.005856 36.159679 -0.0039157439 47.138081
-41.907177 36.30455 -0.0039132307 47.829956
-41.784195 36.415592 -0.0039157439 47.821247
-41.654552 36.533493 -0.0039182571 38.361221
-41.502075 36.6311 -0.0039245407 38.794846
-41.349403 36.7281 -0.0039308234 35.441494
-41.215183 36.841156 -0.0039339648 33.625587
-41.017456 36.896893 -0.0039477879 42.753254
-40.421093 37.276917 -0.0039710361 33.196354
-40.098541 37.213261 -0.0040062214 48.206188
-39.987957 37.332066 -0.0040062214 48.206188
-38.194122 35.882759 -0.0042952481 57.301384
-37.946754 35.875496 -0.0043184962 55.229595
-37.895454 36.053108 -0.0043078149 57.247696
-37.825344 36.213474 -0.0043002749 62.895588
-37.646584 36.26968 -0.0043115844 56.227531
-37.395172 36.242039 -0.0043367175 52.44191
-37.213104 36.293026 -0.0043486557 69.480453
-36.941887 36.255657 -0.0043763011 72.488327
-36.749538 36.294243 -0.0043901242 62.474129
-36.58139 36.343212 -0.0044008056 60.068413
-36.435204 36.426144 -0.0044064606 60.042881
-36.214828 36.434059 -0.0044253105 55.750221
-35.991264 36.437374 -0.0044447882 52.885056
-34.665302 35.53896 -0.00464208 55.81974
-34.563927 35.658459 -0.0046401955 55.827793
-34.204685 35.498043 -0.0046860622 56.643345
-34.041138 35.551144 -0.0046954872 59.867863
-33.946507 35.676033 -0.0046923454 59.882317
-33.865185 35.815189 -0.0046866909 59.908333
-33.899734 36.078079 -0.0046596732 60.032623
-33.669651 36.046978 -0.0046822927 59.928558
-33.525642 36.119583 -0.0046879472 59.90255
-33.75779 36.599606 -0.0046238587 57.967865
-33.571697 36.628071 -0.0046370537 60.136688
-33.554108 36.840553 -0.0046188324 56.935768
-33.303692 36.784283 -0.0046452214 67.938133
-33.020756 36.702877 -0.0046766372 59.954582
-32.845291 36.739349 -0.0046879472 54.647938
-32.640049 36.741428 -0.0047049122 56.561359
-32.45166 36.761326 -0.0047187349 57.54755
-32.319351 36.831146 -0.0047231335 52.652805
-32.114765 36.83075 -0.0047400976 55.401009
-31.969419 36.897457 -0.004745753 53.467316
-31.765268 36.895401 -0.0047627171 56.309921
-31.54837 36.864128 -0.004783452 54.247108
-31.374086 36.894508 -0.0047947615 54.199638
-31.151529 36.866859 -0.004815496 54.112617
-30.942307 36.853508 -0.0048337169 62.858387
-30.784769 36.887569 -0.0048431419 59.188572
-30.617668 36.922512 -0.004853195 56.951874
-30.444279 36.94907 -0.004864505 59.09029
-30.274324 36.965744 -0.0048764427 56.848881
-30.044413 36.92107 -0.0048990622 60.08683
-29.874832 36.949169 -0.004909744 58.882164
-29.736692 37.015553 -0.0049141422 57.751343
-29.479876 36.932957 -0.0049424162 52.656151
-29.304676 36.950951 -0.0049543544 56.503716
-29.154661 36.986702 -0.0049625225 59.789146
-28.945829 36.960018 -0.004981372 59.700726
-28.768166 36.971848 -0.0049939384 58.49482
-28.492828 36.856358 -0.0050266115 59.488529
-28.322088 36.87431 -0.0050379205 63.150188
-28.209505 36.954216 -0.0050385492 64.490616
-28.044931 36.978912 -0.0050486024 64.439438
-27.880484 37.002941 -0.005058655 61.760197
-27.671194 36.96627 -0.0050781332 64.289124
-27.492273 36.968761 -0.0050913282 61.60067
-27.278429 36.909451 -0.005113319 61.493317
-27.061729 36.857937 -0.0051346817 62.667934
-26.824995 36.777149 -0.005160443 58.860756
-26.521544 36.602131 -0.0052006552 65.04953
-26.208292 36.396645 -0.0052446374 62.119926
-26.003624 36.352745 -0.0052641155 67.661278
-25.845852 36.373119 -0.00527354 69.182373
-25.711275 36.425537 -0.0052779387 70.804527
-25.619671 36.538891 -0.0052729119 63.297707
-25.407595 36.479698 -0.0052942745 65.997391
-24.59584 35.551971 -0.0054482128 69.834656
-24.444944 35.558857 -0.005458266 77.122383
-24.341562 35.647873 -0.005456381 77.134247
-24.20418 35.686935 -0.0054620355 75.12175
-23.996964 35.621807 -0.0054833987 79.044273
-23.720879 35.451847 -0.005520469 74.763313
-23.476547 35.326309 -0.0055506285 80.793198
-23.297222 35.283165 -0.005567593 82.985588
-23.153345 35.306015 -0.005575133 84.750175
-22.974094 35.273838 -0.0055908412 86.535385
-22.75997 35.18631 -0.005614717 87.673439
-22.552027 35.106194 -0.0056373365 87.50946
-22.393209 35.101002 -0.005648646 86.770134
-22.238089 35.087059 -0.0056605842 86.037338
-22.103785 35.118664 -0.0056662392 85.996964
-21.972151 35.154011 -0.0056712655 84.696938
-21.909075 35.299324 -0.005659956 84.776497
-21.758707 35.304138 -0.005669381 85.974525
-21.569372 35.244389 -0.0056882305 83.960205
-21.394573 35.192879 -0.005705195 85.083801
-21.25032 35.204269 -0.0057133632 84.400726
-21.095921 35.197945 -0.0057240445 84.950203
-20.875273 35.079296 -0.0057510627 83.521347
-20.602158 34.869217 -0.0057912748 84.473656
-20.383718 34.748325 -0.0058182925 85.549553
-20.224131 34.725777 -0.0058308588 84.193069
-20.060921 34.681759 -0.0058459383 83.467903
-19.884621 34.627548 -0.0058629028 48.092342
-19.696478 34.550858 -0.0058830092 47.612354
-19.541048 34.529884 -0.0058949473 47.681778
-19.405544 34.543152 -0.0059018587 48.236645
-19.278589 34.556919 -0.0059081423 47.366863
-19.160246 34.599815 -0.0059106555 46.956581
-18.931009 34.440762 -0.0059420713 43.328751
-18.847906 34.531891 -0.0059370445 45.327908
-17.343508 32.014774 -0.0063052392 37.573704
-17.365667 32.542168 -0.0062455488 39.401546
-17.066746 32.225418 -0.0062983278 38.562019
-16.528782 31.92016 -0.0063636731 38.327557
-16.419291 31.95414 -0.0063661858 38.273479
-16.247137 31.85129 -0.006387549 36.96246
-15.986676 31.585436 -0.0064321593 36.587284
-16.006306 31.872313 -0.0063988585 37.004868
-15.946231 32.002998 -0.006387549 21.561428
-15.759192 31.87813 -0.0064120535 37.009087
-15.649106 31.893335 -0.0064164517 36.916588
-15.551044 31.946827 -0.006415823 36.103016
-15.422323 31.936996 -0.0064239916 35.669186
-15.862078 33.638474 -0.0062072212 42.429878
-15.63147 33.696651 -0.0062128766 28.200237
-15.497952 33.670223 -0.0062229293 22.817989
-15.346422 33.618675 -0.0062367525 19.365068
-15.211535 33.586632 -0.0062474338 20.756804
-15.058827 33.52935 -0.0062618852 21.966398
-14.928994 33.521687 -0.0062694252 39.475147
-14.76704 33.440361 -0.0062870178 39.997364
-14.52465 33.442806 -0.006298956 20.177805
-14.135577 33.114948 -0.0063561331 23.602404
-13.503413 32.177189 -0.0064956197 24.066778
-12.792962 32.154289 -0.0065320623 36.480316
-12.741412 32.319908 -0.0065150973 34.351093
-12.046836 31.704136 -0.0066187703 34.101238
-11.948943 31.746504 -0.0066181417 34.38702
-11.801972 31.657394 -0.0066351066 35.456268
-11.622772 31.478561 -0.0066640093 35.735069
-11.486367 31.395521 -0.006679717 32.102516
-11.455826 31.619484 -0.0066545843 32.345943
-11.351374 31.641197 -0.0066564693 31.112392
-11.17658 31.464687 -0.0066847438 30.135334
-11.14624 31.676941 -0.0066608675 31.97698
-11.115787 31.910099 -0.006634478 32.491325
-10.991019 31.873964 -0.006643903 32.062351
-10.806833 31.662281 -0.0066765752 31.673004
-10.689694 31.643972 -0.006683487 32.278984
-10.634619 31.810173 -0.0066658938 32.88361
-10.540936 31.862408 -0.0066633807 36.056885
-10.408108 31.79558 -0.0066765752 32.164059
-10.324517 31.859615 -0.006672177 33.018192
-10.25185 31.977598 -0.0066608675 32.222958
-10.170999 32.071602 -0.0066526993 35.376263
